# .PCD v0.7 - Point Cloud Data file format
VERSION 0.7
FIELDS x y z intensity
SIZE 4 4 4 4
TYPE F F F F
COUNT 1 1 1 1
WIDTH 1181
HEIGHT 1
VIEWPOINT 0 0 0 1 0 0 0
POINTS 1181
DATA ascii
-66.64064 -43.574406 5.8553152 55.989586
-56.171677 -43.409187 5.763175 50.254642
-55.416904 -43.558548 5.4669886 57.687752
-54.603676 -43.98122 5.613533 51.222832
-53.727703 -43.391949 5.5313334 52.42099
-50.136181 -43.40509 5.1322169 56.362854
-49.530052 -43.328918 5.1269555 56.309437
-48.716969 -43.669498 5.1351237 58.56345
-47.966179 -43.946709 5.3381343 42.391579
-30.665855 -43.074883 5.901804 57.396358
-21.47381 -43.367939 5.9012933 3.5426884
-16.667383 -43.377888 5.7368355 2.2468503
-12.17001 -43.560219 5.6693735 1.741414
-11.90509 -43.890461 5.7010384 0.5539152
-8.1314077 -43.925148 5.4538746 0.5761168
-7.9746723 -43.979485 5.4138193 0.59143019
-6.0458035 -43.904083 5.6362305 0.5113259
-5.9308987 -43.935032 5.4885659 0.57116747
-4.0608253 -43.817177 5.5240788 0.52149957
-3.8841126 -43.921478 5.4761171 0.52783799
4.8424129 -43.787556 5.9765239 0.50200176
5.312396 -43.613102 5.9380584 0.5148862
6.0893593 -43.822559 5.940752 0.46073246
58.917526 -43.056438 5.803607 23.859047
59.544552 -43.522804 5.8053637 19.110882
60.620983 -43.644794 5.7397437 20.012115
61.242035 -43.652428 5.8043585 21.276377
74.507339 -43.180099 5.2357879 28.809999
75.514999 -43.586742 5.3748503 33.467884
76.656097 -43.559708 5.4497862 35.465569
77.623474 -43.306644 5.520298 35.614155
78.15799 -43.324741 5.5547252 35.827637
-76.322014 -42.160526 5.998312 55.989586
-71.732254 -42.168068 5.868618 56.05854
-68.202026 -42.239494 5.8187485 56.575657
-67.761955 -42.492268 5.7837038 56.39114
-64.582802 -42.011013 5.7723932 55.989586
-59.287704 -42.405964 5.0546961 55.989586
-56.433044 -42.153748 5.545013 55.583061
-55.507309 -42.317986 5.4400606 55.856739
-54.492744 -42.416412 5.3472261 56.84293
-53.562576 -42.32494 5.2840457 57.997601
-52.950035 -42.281677 5.2627563 60.645134
-51.14175 -42.050491 5.048914 56.407417
-50.268513 -42.345654 5.1519599 57.98341
-49.633465 -42.581394 5.1080599 57.197296
-48.798569 -42.358074 5.07651 57.074245
-47.164436 -42.507748 5.0398617 55.453789
-44.226158 -42.557835 5.0176215 40.618683
-43.970116 -42.687538 5.0489702 37.223843
4.8469801 -42.729706 5.8539581 0.46882266
5.337625 -42.831383 5.8545918 0.50549728
6.5436244 -42.418861 5.7717476 0.47456491
7.0816803 -42.430344 5.7554336 0.45235151
58.585827 -42.633945 5.8185716 24.623711
59.319847 -42.258419 5.7352266 21.793756
73.849998 -42.76059 5.3506107 30.482941
74.631508 -42.588608 5.2628269 35.730785
75.382149 -42.47197 5.2996616 34.584595
76.370018 -42.404064 5.3638039 35.187008
77.371086 -42.678856 5.4671602 34.534924
78.696533 -42.919613 5.579843 34.199265
-75.546654 -41.915005 5.9903445 55.989586
-74.325752 -41.016918 5.8649678 56.174366
-73.271919 -41.277885 5.7843356 56.684593
-72.265831 -41.440174 5.7900162 56.081524
-71.731659 -41.703102 5.8500285 56.69162
-68.446358 -41.397308 5.5968571 56.020237
-67.456299 -41.361851 5.850028 56.348137
-64.464172 -41.8848 5.9140844 55.989586
-59.430996 -41.491161 5.3951678 56.997471
-58.350254 -41.68222 5.4863682 56.305103
-56.170757 -41.448608 5.4512391 56.452923
-55.217678 -41.487728 5.3813853 55.040279
-54.461102 -41.460751 5.2968588 57.377781
-53.479401 -41.756275 5.2539673 58.816544
-51.288532 -41.604511 5.0579 56.659813
-50.206226 -41.730358 5.0991111 57.581371
-49.73872 -41.640232 5.1867881 54.739216
-48.892174 -41.851707 5.0528378 57.883839
-10.219917 -41.111206 5.8889809 0.54715574
-9.561079 -41.18322 5.9039168 0.51388848
4.970108 -41.294582 5.7180176 0.52514374
5.5427237 -41.34058 5.6995711 0.4847568
6.4530582 -41.472591 5.683073 0.51199526
58.864452 -41.717583 5.8683004 26.651901
59.09267 -41.513721 5.859024 23.411076
60.543633 -41.143932 5.9140444 21.799301
73.649445 -41.66996 5.3799963 34.88802
74.710564 -41.424995 5.2366138 42.227684
75.349884 -41.386044 5.2716155 40.381927
76.270012 -41.449265 5.3041425 37.340324
77.393532 -41.479233 5.4053559 34.121716
78.082825 -41.550152 5.4450655 31.489073
-74.544785 -40.87608 5.8052349 56.268139
-70.122757 -40.850998 5.6942749 56.127491
-69.512024 -40.635731 5.6582999 56.128254
-68.845749 -40.723022 5.6049957 56.210777
-67.872482 -40.836948 5.3812389 55.989586
-66.85257 -40.708721 5.5683799 55.989586
-60.030735 -40.772392 5.0437646 55.989586
-59.551067 -40.734943 5.322144 56.547634
-56.06884 -40.705723 5.3920107 57.585144
-55.96027 -40.797966 5.4365191 58.836662
-54.418041 -40.623913 5.2077413 59.114655
-50.787716 -40.922146 5.0406876 57.109379
-10.034094 -40.878563 5.9907269 0.48104101
-9.6324844 -40.82571 5.8863187 0.52375072
59.460011 -40.622272 5.7423811 21.536352
60.234116 -40.322773 5.6279984 21.25404
74.671249 -40.825153 5.2289581 48.724056
75.52877 -40.483562 5.2564907 42.494476
76.391876 -40.301384 5.317327 38.242737
77.2631 -40.574776 5.3458114 34.390671
78.602951 -40.917515 5.4591131 30.338257
-70.016304 -39.200302 5.6680288 55.989586
-69.373474 -39.702049 5.5543442 56.197128
-65.861382 -39.883015 5.7131915 55.989586
59.880672 -39.392475 5.8814087 26.600258
60.242786 -39.829647 5.5776696 21.098967
73.903297 -39.719589 5.0837793 51.836403
74.603905 -39.401314 5.1463981 51.149132
75.48732 -39.475189 5.2182808 44.782852
76.297173 -39.489594 5.2431526 39.157425
77.513351 -39.442074 5.3281283 34.445538
78.101242 -39.204773 5.4189572 39.19175
80.89975 -39.314445 5.6067977 35.229034
81.030952 -39.167969 5.6366429 39.591278
-70.079796 -38.566509 5.7058053 55.989582
-69.788467 -38.640911 5.7111611 56.823174
59.65197 -38.388973 5.5122066 20.937775
60.139336 -38.534035 5.3614774 16.918375
73.982605 -38.804535 5.145721 47.19083
74.603775 -38.727154 5.1536603 49.02372
75.652977 -38.562618 5.1916885 42.766132
76.35907 -38.578476 5.2206507 38.338432
77.242378 -38.386688 5.2747588 35.575092
78.75222 -38.557461 5.4448299 30.585472
79.249474 -38.191566 5.4566078 34.550266
80.949112 -38.424309 5.5815687 41.018349
81.057884 -38.332561 5.5844569 45.329735
-77.242317 -37.153316 5.8275623 57.004032
58.917156 -37.424526 5.8714271 17.675982
59.653641 -37.314838 5.51404 19.825293
60.337246 -37.206337 5.4763551 18.251705
61.062275 -37.024189 5.6578102 23.709854
67.812332 -37.062275 5.6915698 15.30705
68.457977 -37.453209 5.8419476 15.742979
74.27684 -37.974899 5.1275997 54.585754
75.615593 -37.536892 5.1653028 48.540249
76.688652 -37.477783 5.2019835 38.400105
77.375984 -37.435261 5.2538338 37.27557
78.623497 -37.474518 5.3667889 43.654572
79.381302 -37.548756 5.3992214 52.177067
80.625336 -37.764828 5.5485077 39.168579
81.102982 -37.487431 5.5404868 49.280163
-77.376991 -36.354885 5.8294458 56.828377
58.972908 -36.907448 5.9228721 0.66652858
59.712379 -36.836494 5.6843896 20.156271
60.581608 -36.825619 5.4808378 18.715509
61.453224 -36.520565 5.4967909 19.754139
62.374092 -36.212624 5.5094218 19.972197
63.650867 -36.190269 5.4372506 16.761137
64.330482 -36.204247 5.501339 17.36647
65.169144 -36.157162 5.591362 5.5535812
66.880089 -36.206203 5.5907173 15.998883
67.350616 -36.485592 5.738574 17.533867
75.82988 -36.804146 5.1655612 48.448822
76.444565 -36.810783 5.191011 47.870895
77.423515 -36.673531 5.2135553 34.668926
78.283371 -36.7771 5.2689867 39.303593
79.215202 -36.792191 5.3459954 53.797871
80.994858 -36.887951 5.4811683 25.500475
81.138298 -36.510838 5.5140176 47.420338
-77.78479 -35.744629 5.7423687 56.128174
-73.467224 -35.144581 5.627367 62.757557
62.761326 -35.855114 5.617919 21.321859
63.489075 -35.761902 5.5340128 18.928663
64.540977 -35.732155 5.5796304 18.334196
65.412498 -35.400311 5.6188707 18.112761
66.097206 -35.231293 5.5622368 17.000748
81.180367 -35.496044 5.4815459 46.831135
-77.5103 -34.788383 5.7164454 55.989586
-74.379448 -34.233112 5.6101871 56.101013
-73.446426 -34.547543 5.7095461 56.527515
-72.445877 -34.08305 5.6356096 56.024063
-71.876556 -34.214005 5.8070922 56.36285
65.457603 -34.921959 5.7529688 21.039009
66.099808 -34.825111 5.8218355 18.494684
80.917679 -34.634644 5.402657 33.467125
81.205376 -34.502171 5.4435859 46.485043
-75.504959 -33.330536 5.9516683 55.989586
-73.175804 -33.851868 5.829639 57.109379
-72.67569 -33.497631 5.7245493 57.182545
-71.838005 -33.29266 5.7707834 57.159622
-53.325512 -33.542648 5.065805 43.799519
80.658707 -33.74712 5.3580756 34.045383
81.254547 -33.480301 5.4030733 46.403214
-74.128372 -32.665791 5.5198908 56.127491
-73.223587 -32.820019 5.6482801 56.266491
-72.987755 -32.182316 5.5396876 55.989586
-71.908043 -32.820774 5.7595482 56.547638
-55.077862 -32.249405 5.0444078 46.483398
-54.686695 -32.316174 5.0921922 45.602699
-53.531189 -32.549088 5.1140046 42.32515
-52.539219 -32.584789 5.2197113 35.771698
81.298897 -32.493004 5.3601031 46.24873
-72.903992 -31.793898 5.5502882 55.989586
-56.02515 -31.920486 5.3175421 39.398312
-55.104885 -31.996056 5.1643858 43.105709
-54.555649 -31.955971 5.2205524 41.161747
-53.501728 -31.665396 5.1922956 36.227016
-52.879616 -31.730705 5.1758265 37.644276
81.335793 -31.498638 5.3307991 46.191231
-73.356621 -30.951656 5.5381799 55.989586
-72.704697 -30.995079 5.6620703 55.989586
81.375137 -30.500561 5.2981567 45.943142
81.418182 -29.509378 5.2680616 47.289761
-74.699844 -28.299232 5.6831985 55.989586
81.457703 -28.495602 5.2402329 44.407932
81.495186 -27.534527 5.2184496 43.825424
-75.79879 -26.211765 5.7480707 55.989586
-74.445656 -26.459534 5.5652237 55.989582
-73.170906 -26.307396 5.8759694 56.546005
-56.279533 -26.419046 5.3581595 33.749157
-54.666649 -26.367975 5.0953245 34.770958
81.535957 -26.488491 5.1988039 40.92128
-73.585121 -25.275923 5.7558751 56.173462
81.574501 -25.509695 5.1768885 40.930187
123.67255 -25.167381 5.5490484 14.8488
81.618813 -24.496218 5.1676536 43.212368
123.70542 -24.936289 5.3313556 18.31369
126.77048 -24.142593 5.5303392 26.941324
137.66469 -24.26622 5.9563799 34.867302
81.659088 -23.509224 5.1581135 43.991177
101.73942 -23.046093 5.0616846 8.1959162
102.51211 -23.067419 5.0826831 4.8915644
103.47007 -23.079575 5.1170015 3.3785267
104.35419 -23.099501 5.1726127 3.3831787
106.63078 -23.021374 5.3481274 0.52172512
107.27859 -23.024082 5.3879375 0.50672007
108.83752 -23.250565 5.3698816 5.9152184
109.44512 -23.238487 5.3453078 1.9085658
110.52158 -23.27375 5.3951087 1.8519212
111.49103 -23.301025 5.4549117 1.9458252
112.52972 -23.226452 5.4672728 0.72847766
113.59679 -23.130737 5.5691276 0.82785362
114.05898 -23.094223 5.5900354 0.63366371
118.55453 -23.543736 5.6661167 3.399379
124.1821 -23.837475 5.5322118 15.84177
126.70818 -23.847332 5.6703682 18.147671
-55.053368 -22.265369 5.1702714 38.525127
81.700378 -22.519135 5.1517596 43.925995
82.723694 -22.030315 5.1684504 37.151806
83.290497 -22.041271 5.2129054 35.201088
84.697311 -22.33597 5.3301353 32.644932
85.500656 -22.380974 5.4135785 36.771523
86.495979 -22.419151 5.5051103 37.177296
87.476501 -22.455359 5.601398 38.297295
88.51944 -22.357756 5.6785097 44.461002
89.500076 -22.261692 5.7768898 42.785694
90.488197 -22.299479 5.8828616 42.7216
91.255371 -22.332878 5.9117436 40.151207
92.463478 -22.363852 5.9062614 58.08165
93.452576 -22.522905 5.9480014 57.558632
96.699844 -22.575094 5.9000235 56.407417
97.702454 -22.573895 5.9792199 56.543938
98.371483 -22.659807 5.9982481 57.396358
99.284439 -22.653503 5.0246906 40.187012
100.67447 -22.982025 5.1335773 37.062672
101.56227 -22.956453 5.0985365 19.732325
102.56178 -22.795465 5.070734 0.47101143
103.47765 -22.829786 5.1378746 0.46624756
104.60299 -22.889185 5.1866355 3.6510148
105.5107 -22.864876 5.2138014 3.0750802
106.47923 -22.854288 5.2236261 3.2429557
107.29383 -22.846107 5.2296309 3.0936744
109.73523 -22.856682 5.5958509 0.48092106
110.4713 -22.831068 5.6487589 0.47100517
111.73091 -22.928688 5.7422943 0.47591147
112.78802 -22.953896 5.4370484 0.65648556
113.691 -22.898514 5.4794497 0.95473909
114.05959 -22.949842 5.3425112 0.45917088
81.825806 -21.954023 5.1440096 37.503578
82.433311 -21.97316 5.172945 35.130741
83.330322 -21.974598 5.2328324 34.58009
89.88887 -21.586021 5.6680074 55.989586
90.936928 -21.607952 5.7427425 55.989586
94.144264 -21.650414 5.9712877 55.989586
-81.278519 -20.677011 5.9090929 55.989586
-56.476009 -12.403929 5.0253978 34.232716
-57.369099 -11.616616 5.0919366 35.818012
-56.531586 -11.281293 5.017725 32.24313
-56.755413 -10.675595 5.0227008 29.56966
40.787102 -10.232096 5.259604 9.5427427
41.785915 -10.243564 5.4448528 9.6124058
42.460442 -10.006889 5.5397644 8.844492
-66.283455 -9.6830244 5.7163138 41.728844
-57.460083 -9.4867392 5.0293212 29.551941
-56.786449 -9.4420605 5.0110893 28.662947
12.875479 -9.0038366 5.0005822 7.3134222
16.963644 -9.0774784 5.0408006 8.8983326
17.40591 -9.1883593 5.1709466 7.5989141
27.662336 -9.0328474 5.0400634 11.151822
31.837942 -9.0634537 5.4852853 10.195322
32.44595 -9.3223791 5.2812972 10.304773
33.364918 -9.3259096 5.1859322 9.2951994
36.497322 -9.2675791 5.317173 9.3987617
37.432961 -9.2411661 5.3796029 10.25449
38.313541 -9.1511965 5.3031173 10.807597
40.783325 -9.4173717 5.2761717 10.089425
41.448677 -9.5096092 5.3294063 10.007037
42.4473 -9.4653559 5.3150811 9.917634
43.056416 -9.220542 5.6498566 12.318974
-77.541817 -8.3058367 5.772234 57.307232
-75.475708 -8.2746592 5.8252006 56.035553
-72.152542 -8.0747623 5.3793192 57.402161
-57.642735 -8.5164957 5.0493464 30.773493
1.6854277 -8.2756014 5.1765962 11.527014
2.702605 -8.3514023 5.3546391 11.727859
3.2742443 -8.350913 5.3870277 12.504085
6.7840319 -8.4428329 5.2120452 10.137222
7.2371302 -8.229394 5.4025302 12.123345
11.448641 -8.5790195 5.009387 8.3959589
12.674905 -8.5301752 5.1344357 10.62221
13.143317 -8.3574791 5.0601711 10.551344
16.505667 -8.3242321 5.1767087 11.17117
17.436781 -8.4913588 5.2243152 9.5171614
18.087502 -8.9099236 5.1660557 9.345994
21.797129 -8.254962 5.2704782 9.7146511
22.329189 -8.3681107 5.2461081 10.781175
23.162546 -8.345993 5.0215316 8.6721601
26.890001 -8.0928783 5.2051334 9.6642647
27.488306 -8.4450464 5.189465 10.008019
28.169815 -8.2674122 5.2408295 9.4186373
31.805447 -8.4291553 5.5115695 11.704536
32.345787 -8.4644594 5.4138999 11.624964
33.360512 -8.6342888 5.2574549 11.201823
35.957142 -8.3843622 5.434021 10.821287
36.362419 -8.5519037 5.4064255 12.171572
37.591988 -8.6937065 5.4758296 12.704997
38.404175 -8.7574205 5.2837992 11.49066
40.81839 -8.8948097 5.1554456 9.2116861
41.710552 -8.5506315 5.407568 11.791845
42.45187 -8.4640884 5.3363872 12.335851
43.021587 -8.396245 5.9557753 7.3648987
-79.234329 -7.7230096 5.0497217 55.989586
-77.915726 -7.7729011 5.8940339 56.543938
-76.190948 -7.4646902 5.7590051 56.352833
-75.510307 -7.6348472 5.5768733 57.968842
-73.672379 -7.047843 5.689414 56.618454
-72.237083 -7.3852029 5.4267306 60.663464
-71.828331 -7.9841413 5.7245903 53.261761
-3.1074822 -7.3581963 5.1135621 11.482183
-2.7233863 -7.2503033 5.2475929 12.925418
1.8349694 -7.2697949 5.3201532 12.694918
2.4374259 -7.3668962 5.4409046 12.02446
3.4480853 -7.4652843 5.3592873 14.469087
4.0685434 -7.7596393 5.2322097 14.163275
5.8275838 -7.7940326 5.3640566 13.319058
6.6676397 -7.5009999 5.3693419 13.082116
7.222476 -7.5984373 5.4196877 12.55606
11.61513 -7.8025918 5.1865163 12.395503
12.51615 -7.5431199 5.5653448 14.515844
13.078557 -7.4197421 5.1931973 13.26833
16.563677 -7.5941591 5.5442162 12.090985
17.392206 -7.4502149 5.3156824 10.458182
18.134192 -7.7093744 5.1559849 9.3913031
20.906324 -7.6210499 5.0315137 9.5669956
21.781839 -7.5994697 5.2762475 10.484999
22.412966 -7.3817148 5.2559366 10.651075
23.086794 -7.2553391 5.0540719 11.071475
26.825306 -7.8993087 5.1633139 9.342432
27.591009 -7.6948538 5.2274423 9.876482
28.166939 -7.8031106 5.0960917 9.8848038
32.484856 -7.7487497 5.333878 13.457276
33.110241 -7.3533797 5.1030703 11.952298
35.892174 -7.9383321 5.4656916 11.476665
36.530628 -7.8579354 5.3406901 14.806116
37.444454 -7.6792059 5.2759356 11.425301
38.321957 -7.6765575 5.4104342 13.635265
42.435089 -7.954464 5.1849804 8.7821531
-74.232666 -6.9256091 5.8441906 56.825253
-73.627754 -6.7130599 5.6299996 57.474564
-71.021591 -6.7021546 5.3711176 57.396358
-70.713165 -6.6271644 5.3754401 57.530182
-67.34317 -6.1269979 5.2457833 55.31765
-3.0213146 -6.4740539 5.0388722 16.607063
-2.7273228 -6.7415652 5.269043 12.413293
1.8722588 -6.8771353 5.3804178 13.614656
2.4941232 -6.8443146 5.2415524 10.148094
3.3280029 -6.8961163 5.4222498 13.131449
6.8528214 -6.8488083 5.516685 15.597086
7.086422 -6.7119241 5.1549425 11.62175
12.468472 -6.8024087 5.2856908 15.056213
17.396076 -6.7851396 5.1380053 10.067643
21.756308 -6.7224736 5.1092262 10.37529
22.288881 -6.8256731 5.2181711 9.511528
-71.602226 -5.9722176 5.3842592 55.989586
-68.238144 -5.4871817 5.326395 52.401806
-67.307716 -5.7665172 5.1402683 56.473156
-66.890274 -5.4186473 5.157156 54.010166
41.757542 -5.0416698 5.0349736 9.7081375
42.798721 -5.189045 5.1821342 10.906111
-76.070343 -4.2072291 5.347724 55.989586
-75.565895 -4.3766532 5.517715 56.550446
22.723234 -4.239357 5.0354438 10.250563
36.810684 -4.2006035 5.1680803 9.3704319
37.776367 -4.177371 5.2213778 8.9865322
38.290337 -4.0990477 5.2892609 9.5377073
41.781178 -4.6462274 5.5479379 9.998415
42.213917 -4.5460076 5.3893557 10.422971
-59.384956 -3.3482924 5.1512222 37.462719
-58.487003 -3.4436421 5.1008835 35.150368
-2.3365479 -3.1151927 5.0492463 14.06904
2.7177398 -3.4089699 5.2780595 21.694496
8.5201874 -3.339438 5.4007268 14.8627
12.225715 -3.5205581 5.4711151 14.160329
16.984968 -3.279242 5.6904082 15.60096
21.747143 -3.264317 5.13342 10.820374
22.702692 -3.5684314 5.114222 11.821081
23.284914 -3.1512318 5.5536323 10.483896
26.353662 -3.319042 5.2091627 10.549278
27.26849 -3.9433753 5.0133171 12.597195
28.408817 -3.62796 5.2680058 11.756161
31.926844 -3.1345851 5.091887 9.3702698
32.499439 -3.2209976 5.449122 10.801513
36.73048 -3.234828 5.4638901 11.509995
37.450626 -3.1920447 5.4055414 11.000724
38.197777 -3.6156471 5.1899395 9.5197029
42.318073 -3.1903391 5.3063927 9.7875881
-2.2597752 -2.626092 5.1309175 12.664505
-1.4337432 -2.2111192 5.1038918 12.906058
1.9682331 -2.6393061 5.1259751 9.538311
2.6720259 -2.3261058 5.2415414 12.342257
3.3048429 -2.1177993 5.5902777 13.777745
5.909235 -2.1938667 5.1489954 11.036713
6.5262446 -2.0890532 5.1892509 13.030079
8.4184151 -2.054111 5.5964813 15.514471
11.808143 -2.271503 5.128355 12.103453
12.775944 -2.4896355 5.0760436 11.391186
13.118469 -2.6750097 5.005249 11.840254
17.976862 -2.0820451 5.3388543 11.980425
21.955814 -2.6774118 5.1169386 9.7992783
22.726849 -2.6377504 5.3262186 11.420382
23.141506 -2.6005621 5.3323641 10.644463
26.815104 -2.4249709 5.0870018 11.019005
27.415857 -2.2297475 5.2211261 7.9952126
28.52977 -2.9289587 5.123425 9.7623358
32.55938 -2.8609672 5.2003274 10.098155
36.805054 -2.775131 5.652679 9.4907618
37.530575 -2.7685132 5.4267468 8.5392981
38.058739 -2.8053679 5.3732238 8.7031708
42.4804 -2.7781847 5.1668348 6.3719707
-3.281234 -1.4407502 5.1880207 11.355845
-2.2339723 -1.3036356 5.3516922 12.303382
-1.5079056 -1.5625869 5.3554678 13.376881
1.9279747 -1.5390704 5.2395844 7.7263222
2.8257103 -1.8968753 5.2549992 12.537425
3.1073258 -1.8361964 5.1799278 11.92009
5.8678627 -1.9192417 5.093277 9.1483707
6.5873594 -1.3760204 5.3026452 13.97231
7.6550298 -1.2156665 5.4419661 14.59419
8.2290049 -1.4246638 5.6054077 15.566616
11.796642 -1.9823182 5.0543981 11.335095
16.405296 -1.9537075 5.1003442 12.296484
17.956413 -1.933705 5.2205954 11.932879
18.154789 -1.8597167 5.0354004 11.563606
22.866291 -1.9247353 5.4878469 11.390293
23.092037 -1.8996313 5.07937 9.9342413
27.722761 -1.9666443 5.0137548 4.7886939
108.88977 -1.082435 5.163384 0.5211823
116.45697 -1.1417917 5.3871675 1.1107463
-76.33522 -0.47457942 5.5426755 56.035557
-66.277283 -0.9449777 5.0887508 50.969379
-65.52861 -0.85527921 5.2802525 44.621738
-1.44557 -0.95378846 5.1207924 11.009351
6.8514891 -0.86766326 5.2623205 12.942787
7.5011148 -0.8244738 5.441329 13.081002
8.1700821 -0.90930617 5.6428289 15.353511
86.365784 -0.051419072 5.1912031 37.553024
87.963806 -0.19182062 5.0495124 22.468924
88.86528 -0.08174175 5.363308 36.155914
89.33992 -0.23054087 5.2022429 22.34646
90.172295 -0.28886914 5.2927675 25.761196
91.352425 -0.15117359 5.6030407 36.239635
92.621208 -0.38156113 5.5562577 25.586876
93.779839 -0.2581315 5.8266492 35.093536
94.680344 -0.36768341 5.7796192 26.279734
96.33255 -0.40276286 5.9808121 36.738594
101.31287 -0.65800399 5.0615449 35.954678
106.32951 -0.78392059 5.453527 37.729313
107.2388 -0.49162674 5.0075817 0.45235151
108.68864 -0.71143943 5.2056351 7.1673226
116.44244 -0.84338105 5.4684601 0.76972705
-78.111557 0.55317318 5.7832022 55.989586
-77.45636 0.79266602 5.5055928 56.313995
-76.824844 0.84570283 5.5342112 55.989586
64.834587 0.99425387 5.6667271 6.3737073
65.303459 0.98139501 5.5517926 5.3767915
66.485268 0.94082731 5.4800186 9.7274818
67.461853 0.90278298 5.5740399 7.7899175
68.811501 0.89649826 5.395884 10.512048
69.561127 0.80772352 5.5089493 7.3575835
70.2146 0.78023815 5.5961905 5.9418664
71.366814 0.78143084 5.4173517 10.351832
72.402069 0.67418891 5.3340001 0.71913469
73.831894 0.68802208 5.4906363 10.854002
74.596375 0.61402327 5.6263227 2.0183816
75.185677 0.6051333 5.7003026 0.69887435
76.373863 0.59154534 5.6370111 12.277632
77.632759 0.49793652 5.060277 9.6438856
78.816605 0.49989486 5.4821925 14.52526
79.615005 0.43872303 5.3226929 11.394748
80.248688 0.40539438 5.4043493 10.9083
81.344025 0.39767414 5.6882305 15.21967
82.438324 0.30243716 5.7254267 13.222565
83.86377 0.1953388 5.3182759 30.342934
84.204689 0.2670753 5.9600272 13.721085
86.314537 0.088199452 5.1853342 33.712444
87.769302 0.50177622 5.0079503 23.021484
88.837051 0.088771142 5.3471856 30.055401
89.638786 0.30839252 5.2135739 25.794792
90.30822 0.40242147 5.2816215 26.547327
91.568954 0.28664073 5.4213963 26.542694
92.606331 0.20400357 5.5337501 25.930891
93.778015 0.2417562 5.6595755 28.345863
94.909698 0.25076056 5.7781396 25.955559
96.303032 0.16568947 5.9322567 28.408928
116.45764 0.14073277 5.666111 0.530967
-77.324837 1.2662722 5.5831804 56.524075
-76.912483 1.1004946 5.5930538 55.989586
-75.735199 1.8415947 5.4634247 55.989586
-72.606033 1.7536049 5.6750274 54.738293
41.742561 1.9785502 5.1462774 6.2717891
42.606701 1.9544011 5.240829 6.6941943
43.627136 1.916137 5.3771005 5.4372773
44.506622 1.8749796 5.4598093 5.2116365
45.50074 1.8412688 5.4016986 5.5214624
46.544243 1.8044331 5.4271336 5.1863194
47.52882 1.7664158 5.487216 5.3044853
48.507763 1.7154549 5.5298104 5.0256195
49.513721 1.7042491 5.4454083 4.8992434
50.457378 1.6586776 5.5076165 5.2350254
51.479195 1.6311235 5.5126343 4.8879595
52.462406 1.6062325 5.5766397 5.1287565
53.57209 1.587679 5.5352449 4.5825644
54.483173 1.5279139 5.6125431 5.1156301
55.449867 1.5085639 5.6151581 4.6380973
56.429981 1.470108 5.6860437 5.0046196
57.493771 1.4419527 5.7056246 5.1024504
58.47596 1.4169023 5.7699518 5.1323452
59.466255 1.4351608 5.741312 5.2034888
60.417698 1.3853258 5.7356515 5.1742229
61.678009 1.5253317 5.4080358 4.4564338
62.46019 1.1404573 5.5027142 5.6802006
63.478401 1.0938643 5.4630075 5.9113331
64.415451 1.0569415 5.4474397 6.0302463
65.175964 1.1205523 5.5334864 8.6340008
66.316017 1.0894861 5.4698167 13.007445
67.447357 1.3025044 5.4915733 10.503568
68.858521 1.3141885 5.4248447 13.81901
69.482666 1.2486776 5.5624146 11.839236
70.235954 1.2274057 5.7174935 11.73952
71.372719 1.2878432 5.4679809 7.9578071
72.498703 1.2363269 5.2353115 0.83371735
73.810425 1.2046679 5.4715114 1.2176834
74.447708 1.1891538 5.575222 0.93713033
75.207382 1.3611026 5.7095819 0.7368952
76.316559 1.2586737 5.9042034 1.0288076
77.841949 1.3257351 5.0509248 9.6345501
78.844513 1.2112113 5.1891947 14.608677
79.427208 1.2932348 5.2748609 12.531871
-76.045662 2.3038809 5.7054558 56.173462
-75.924278 2.0877721 5.6109896 55.989586
9.9864044 2.9774027 5.8110147 12.382771
11.686327 2.969002 5.7512078 14.482741
12.351156 2.9844019 5.664423 16.09075
14.530245 2.9217572 5.3345537 9.7386503
15.684324 2.9336331 5.2306833 9.3790026
16.3801 2.8967824 5.1523933 9.2868824
17.355934 2.8447998 5.4747596 9.4954033
18.601011 2.8162763 5.865253 11.239965
19.40238 2.8561692 5.7807665 12.497785
20.900312 2.7345781 5.5090356 8.0735264
21.665703 2.7729945 5.4503002 9.2937222
22.514608 2.6926224 5.529429 8.3393106
23.548996 2.695123 5.6245637 9.3590069
24.230846 2.7613492 5.7373405 8.6973782
25.566309 2.5982368 5.6186032 6.7830081
26.616213 2.6064653 5.492363 7.1557317
27.425938 2.6117959 5.3776264 6.3081923
28.436674 2.5468822 5.2148209 7.0803013
40.93631 2.0301192 5.0684571 6.7802849
41.435986 2.0529206 5.0776563 6.5721502
42.825874 2.0285087 5.4150643 5.776752
44.490269 2.0610704 5.0166631 4.2176337
45.500275 2.1145923 5.0590754 4.0812888
46.599995 2.2419519 5.0985446 4.0780659
47.467388 2.2996528 5.117569 4.1082373
48.677742 2.4170699 5.2264528 4.2117767
49.432575 2.3313231 5.2157316 4.3338809
50.509502 2.3469658 5.2143197 4.5658383
51.530132 2.2974777 5.2786078 4.5937929
52.46809 2.3256562 5.3175502 4.7977118
53.521317 2.3054755 5.2763577 3.7308571
54.380466 2.2389977 5.3671961 4.7960553
55.556473 2.2296515 5.4385929 4.6565299
56.451733 2.2239063 5.4649439 5.2788291
57.479031 2.1726897 5.5200481 5.9448376
58.546307 2.1376126 5.6121364 5.3800869
59.400078 2.1156967 5.6684012 5.5106249
60.467175 2.1042426 5.6555982 5.9354844
61.807014 2.5893099 5.4329371 10.203156
0.38062286 3.271277 5.4174013 20.877651
1.8275604 3.445828 5.3136592 20.832115
2.6006117 3.348474 5.2733498 21.269142
3.3867912 3.3998079 5.2347474 20.237068
5.0182419 3.2512321 5.0725937 16.918819
10.369572 3.0311203 5.7610545 15.321821
11.631986 3.1130183 5.7123055 15.640503
12.546096 3.3506858 5.6208878 13.14594
13.343614 3.4035676 5.5649366 11.419678
15.006344 3.0306888 5.3375707 10.379457
18.710213 3.0276656 5.7695026 9.9798632
19.572538 3.2745302 5.7761173 10.672913
20.323936 3.8181901 5.7550507 11.021642
21.241285 3.9119012 5.618207 9.3469238
24.466869 3.2138875 5.9095478 8.9607239
25.135006 3.7389076 5.9053183 8.6165247
27.298893 3.0105495 5.4670477 9.3419762
49.84066 3.8705487 5.2529254 4.7491045
50.635403 3.8377597 5.4586358 5.0035009
51.550098 3.7988756 5.5783234 5.2548738
52.559471 3.7716677 5.5423522 5.0324273
53.481728 3.7280767 5.631856 4.8268957
54.50539 3.7070074 5.5997701 5.314918
55.474358 3.6807539 5.6476679 5.5989637
56.477608 3.6361656 5.6923323 5.6501541
57.459442 3.5996571 5.6843395 5.426095
58.488903 3.5584719 5.7461681 5.7001348
59.469219 3.5216241 5.7569551 5.7462745
60.471008 3.4938211 5.7572827 5.359715
61.800705 3.3638177 5.4541116 9.6217327
-12.187145 4.2187872 5.3704486 8.6629829
-11.4685 4.2107992 5.3210506 9.8148661
-10.52299 4.1724849 5.2324786 9.2511282
-9.5757837 4.1310525 5.1214018 8.8386335
-8.6692066 4.0818686 5.0792832 8.3165274
-7.65553 4.0298195 5.0019236 7.9536848
13.288143 4.1207318 5.6023726 11.681512
14.027832 4.1245637 5.5078025 12.001518
49.799412 4.0112424 5.1856213 4.8245053
50.450035 4.1169901 5.1695375 4.2486658
51.587677 4.0919032 5.2511292 4.1280007
52.426289 4.0563507 5.2823682 4.7224655
53.34449 4.0530829 5.2977161 3.9369178
54.473862 4.0294151 5.4021649 4.1499214
55.216755 4.0121961 5.4103875 3.9365962
59.921478 4.996666 5.681375 4.8296123
60.562344 4.9150281 5.7955461 5.6286807
61.812252 4.527113 5.5223842 4.9699144
-77.359375 5.3254161 5.8005657 55.989586
51.89938 5.4651699 5.3652954 4.8411946
52.632549 5.3919826 5.428689 4.8946538
53.519394 5.3168621 5.5434976 5.099721
54.517147 5.2853308 5.6206326 5.0542645
55.526436 5.266233 5.593657 4.9623418
56.462006 5.2090602 5.6724424 4.9236178
57.480747 5.1650181 5.6992693 5.2562208
58.516216 5.1346779 5.7138219 5.5017204
59.502541 5.1142402 5.7351069 5.8700228
60.457253 5.182795 5.7421241 5.4450951
61.882534 5.5229316 5.4471102 5.2341032
-63.465504 6.312201 5.5069542 34.877819
-62.667511 6.4382157 5.4024405 36.41745
-25.321297 6.9927039 5.994844 15.932011
-24.353123 6.9802723 5.4580894 11.549042
-23.53669 6.9539919 5.4875746 11.528938
-22.533249 6.914876 5.4687982 11.69414
-21.463449 6.9000025 5.5245976 13.458033
28.886829 6.6451273 5.2793145 5.170001
29.4842 6.5913825 5.1898713 4.9604087
30.818686 6.581171 5.3025036 5.063365
31.336529 6.5721588 5.2245989 4.8853555
52.743214 6.9169817 5.2915888 4.3607674
53.532314 6.8658781 5.5075364 4.8953886
54.600986 6.8260379 5.5496941 5.1240783
55.538353 6.7821751 5.6398182 5.1747828
56.534214 6.7698622 5.6477451 5.2425961
57.538864 6.7500262 5.6966391 5.241344
58.472912 6.7105851 5.7280359 5.1569486
59.547314 6.672534 5.7100463 5.3386698
60.465778 6.5912752 5.7865911 5.5796165
61.839935 6.435967 5.5249777 5.7275953
62.014206 6.7880626 5.2567949 4.9204149
-63.257767 7.9451933 5.5230231 34.002689
-42.519978 7.7899876 5.410255 0.48916644
-41.478706 7.7296457 5.2635593 0.51257485
-40.517975 7.6889071 5.1895213 0.51404285
-39.591816 7.6334319 5.1580529 0.5022521
-38.508999 7.5656843 5.1802845 0.47812051
-37.791988 7.5495634 5.1967459 0.46967503
-36.570774 7.4923129 5.4418736 6.7843852
-35.513409 7.4611478 5.6110268 11.670981
-34.422794 7.4282374 5.7585149 16.866978
-33.476974 7.3801193 5.6948915 17.953117
-32.510185 7.3339729 5.6185737 18.01058
-31.565363 7.2900558 5.5361543 17.63665
-30.543983 7.2386718 5.4620996 17.487612
-29.488806 7.194057 5.4285889 17.138752
-28.520964 7.1573944 5.4392033 15.463105
-27.5348 7.119236 5.4551873 14.481125
-26.515226 7.0877533 5.5433764 12.264483
-25.477951 7.0408378 5.532721 11.68988
-24.680199 7.0162997 5.6223426 11.647003
-21.124691 7.1489081 5.5046492 16.579266
52.740616 7.1470094 5.2554936 4.098825
53.581436 7.1489596 5.2927046 4.0180807
54.442612 7.0913243 5.3131166 4.4390478
55.558701 7.0870304 5.3930006 4.2823968
56.447754 7.0622153 5.449904 4.5082908
57.631973 7.0736904 5.508996 4.4234166
58.516472 7.0894966 5.616725 4.7870855
59.381363 7.04669 5.8434567 5.2285113
60.455322 7.060504 5.708765 5.9330482
61.944389 7.3934488 5.5570321 6.1237159
62.029396 7.6604409 5.4470606 6.7316751
27.959444 8.6969414 5.0261831 6.0606794
28.02759 8.9540281 5.1061602 6.2278261
52.720806 8.5999031 5.2621312 4.2201586
53.583546 8.5517178 5.4658747 4.5269089
54.626762 8.5261726 5.4970694 5.027421
55.5821 8.4643364 5.5812068 5.5666327
56.520855 8.4327011 5.6591535 5.7075539
57.556938 8.4020548 5.636682 5.3698206
58.486515 8.314393 5.7076244 5.5361915
59.484921 8.2467403 5.769022 5.5027976
60.431271 8.2076139 5.7852263 5.8062444
61.691448 8.2779551 5.670372 5.9274631
62.060532 8.4821768 5.385479 6.2450261
27.953133 9.1170998 5.110127 6.2221375
28.044706 9.3649712 5.2180438 6.4954557
54.712154 9.9828253 5.5185332 4.8329191
55.599537 9.8868847 5.5184855 4.9920473
56.561749 9.8690891 5.5853481 5.5653677
57.518379 9.8696947 5.6924067 5.9944806
58.453403 9.8277349 5.7602768 6.1420045
59.459427 9.800375 5.7636962 5.9326634
60.472515 9.7602615 5.7738485 5.8897386
61.593838 9.6094446 5.7213783 5.933938
62.08276 9.4811916 5.4397888 5.6649909
43.796799 10.727352 5.0665379 6.6976357
44.509029 10.494245 5.0858817 9.8846588
45.502972 10.475485 5.1018662 4.923265
46.510025 10.474118 5.1372595 4.1835632
47.509441 10.412357 5.1723862 4.2125721
48.55933 10.348381 5.225718 10.148929
49.501522 10.314586 5.2940598 10.604927
50.555733 10.43858 5.3540974 7.8097849
51.636414 10.34219 5.3465962 7.0614433
52.625114 10.258664 5.3802032 6.297688
53.472443 10.138838 5.4871988 6.4548807
54.481991 10.18337 5.4751239 5.5378947
55.532436 10.201882 5.4859939 5.8233361
56.398907 10.15915 5.5281243 5.6260452
57.557259 10.169792 5.635385 6.4129729
58.501167 10.117393 5.5107813 5.4851642
59.451382 10.089511 5.6249628 5.6581454
60.295456 10.061209 5.7352557 6.013176
61.795017 10.327685 5.5933189 5.9075961
62.126801 10.529121 5.4396052 5.4526906
43.676701 11.679873 5.1062922 4.3418241
46.656342 11.983281 5.3766499 11.555553
47.555527 11.971997 5.2089739 8.0208549
48.612705 11.963664 5.3052597 12.215775
49.584801 11.911734 5.2268467 11.009056
50.655624 11.848303 5.2373009 9.1753092
51.573082 11.771928 5.192986 7.7670026
52.580112 11.787515 5.2598801 7.9922261
53.499023 11.695262 5.311141 7.7649894
54.495506 11.620647 5.3780246 6.9341221
55.539082 11.573393 5.4776163 6.9384708
56.488354 11.583087 5.4214559 7.3426833
57.526676 11.548075 5.4318986 6.9179244
58.483398 11.423011 5.4627566 5.6094899
59.441021 11.38313 5.5669351 5.8693748
60.453827 11.395877 5.5927243 6.8980355
61.609657 11.443211 5.4950953 7.2917147
62.117229 11.165083 5.4695959 6.9892397
30.579887 12.942476 5.3535709 4.339437
34.741741 12.76266 5.2602119 4.0442772
35.360004 12.70637 5.0917344 4.674623
37.402447 12.630041 5.2732515 4.8460627
43.843994 12.190845 5.231916 9.2093554
44.503143 12.179112 5.2355924 10.889537
45.501484 12.147563 5.2485809 11.065778
46.392654 12.076642 5.2613978 10.071704
47.61116 12.048188 5.1741967 10.518788
48.455082 12.083619 5.1731429 11.151717
49.507732 12.244318 5.1511331 8.7544603
50.435303 12.399138 5.1990223 7.1814976
51.806549 12.188639 5.2162466 8.1705074
52.489029 12.361872 5.1456113 6.9280424
53.714298 12.730142 5.1247287 5.5310116
54.183502 12.604202 5.0977836 6.1371932
55.725872 12.28766 5.1612649 6.2866626
56.54842 12.44849 5.1302075 7.1893177
57.567322 12.501516 5.1511908 7.3935294
58.071644 12.182658 5.1315145 5.4341197
59.822392 12.200485 5.4788914 5.6983089
60.641174 12.29098 5.3748126 5.2009692
61.600834 12.355572 5.2620034 9.1894197
18.616701 13.304652 5.1335292 11.52367
19.844795 13.393826 5.0480242 4.9306984
20.077728 13.39562 5.014493 4.8588076
25.957235 13.097833 5.0610991 5.0192699
26.262316 13.079815 5.0103211 4.916265
49.749317 13.084408 5.022213 6.2717824
50.263767 13.056263 5.0608201 7.1590805
52.64822 13.154552 5.2202606 6.6742654
53.345913 13.052889 5.2202435 6.3942671
60.371944 13.047951 5.5806828 5.1876464
63.29192 13.816068 5.2993202 13.775242
62.964504 14.916964 5.3845553 12.271782
63.331764 14.461808 5.3062849 12.757845
62.965294 15.477877 5.4476433 13.132721
63.375511 15.38033 5.4125185 12.318056
47.269791 16.765186 5.5110054 9.3231649
62.972008 16.472282 5.5616636 11.776629
63.303535 16.323593 5.5972495 11.693069
42.998062 17.534456 5.207303 9.2200022
43.3745 17.460329 5.2565246 9.7318897
47.421638 17.274429 5.6536713 9.795908
58.57925 17.865913 5.4005017 11.259679
59.181686 17.795759 5.5039077 13.399336
62.981007 17.204374 5.6473284 11.774178
63.210945 17.175116 5.7921419 12.146303
36.889217 18.405155 5.2082973 4.9569921
43.772839 18.647903 5.5132689 12.134387
44.529732 18.702652 5.8083344 16.43956
45.320721 18.813839 5.6016197 15.058992
46.504028 18.605904 5.9162884 16.630426
47.454662 18.289385 5.4545569 11.169026
58.332916 18.262152 5.3901882 12.210807
59.047935 18.23267 5.2397318 13.969419
19.544096 19.411955 5.0451074 11.372034
23.592827 19.430431 5.0656891 5.2006259
24.132092 19.386026 5.1229177 5.2414813
26.445637 19.353563 5.0353274 5.0493317
27.110485 19.310581 5.1344895 5.172081
30.168213 19.203602 5.3621454 5.4606705
43.35326 19.19874 5.5622516 10.289879
44.887955 19.272028 5.4435062 13.59681
45.640862 19.579166 5.551703 15.116996
46.412556 19.580973 5.5237737 15.205264
47.151688 19.556421 5.4619679 14.020694
59.276299 19.850069 5.4062004 9.35116
61.058586 19.984596 5.803122 17.267935
28.276884 20.767727 5.2135959 5.6567535
43.507511 20.51169 5.5625539 9.753089
44.928776 20.747292 5.2089505 12.904454
45.529659 20.504324 5.2872519 15.441429
46.568329 20.45434 5.0326247 14.479084
47.011372 20.375685 5.0295544 12.063837
59.323223 20.124838 5.4150543 7.9656572
60.571468 20.278536 5.7203202 16.959047
61.227291 20.103117 5.6476631 16.67802
73.973694 20.992727 5.2983055 11.303053
74.188583 20.912275 5.3214984 12.083374
22.537868 21.635401 5.1542516 12.780027
31.327408 21.431871 5.3272076 5.855782
43.758099 21.986652 5.8245363 9.7408838
22.563229 22.012707 5.2323546 12.454978
24.651896 22.462889 5.219552 9.9397011
25.307968 22.393269 5.2104645 5.9224725
26.732712 22.314146 5.2974763 5.8454032
28.105272 22.276484 5.3236456 6.0731716
29.693253 22.67148 5.0072727 5.2927537
30.395943 22.187614 5.2288928 5.7083678
31.209551 22.120361 5.3543315 5.9553699
43.772308 22.213207 5.8885984 9.9614086
59.3074 22.472897 5.5847173 12.613593
43.450027 23.405832 5.7409592 11.015676
59.364243 23.453436 5.7015257 12.23142
60.813568 23.93854 5.9549093 9.1998549
61.128304 23.955341 5.5204039 4.5346217
43.616352 24.636608 5.6238289 19.793665
44.41209 24.73435 5.5437241 18.661093
45.172337 24.714397 5.5370245 16.858137
53.715801 24.272974 5.1873507 18.352415
54.518265 24.300421 5.3709798 19.351717
55.485718 24.271849 5.4955587 18.948883
56.478935 24.230696 5.5989738 19.237658
57.428478 24.216995 5.7033029 19.083174
58.107311 24.047125 5.6303873 17.876278
59.456551 24.486128 5.8513269 12.671824
53.466003 25.588844 5.3204184 19.070557
59.497707 25.285505 5.9478807 13.343431
53.56789 26.893497 5.6799164 19.41926
59.668468 26.680927 5.0281286 0.61358565
58.910954 27.660206 5.1446199 0.63493866
59.686481 27.277582 5.0812855 0.68114352
58.912952 28.308939 5.2353787 0.60409534
59.165802 28.426071 5.3574123 0.6345486
48.662205 30.546373 5.8893719 25.233995
49.66922 30.427576 5.854907 25.016228
50.49818 30.362539 5.8315244 24.096926
51.711132 30.258728 5.5601182 14.144519
52.675671 30.301697 5.3339896 6.2074142
53.427155 30.257704 5.0536599 0.87736112
-49.914562 -109.12347 6.2474298 55.989586
-50.014526 -108.44016 6.2172737 55.989586
-49.934113 -107.44666 6.1350451 55.989586
-49.858177 -106.49067 6.0549321 56.825253
-49.736435 -104.36833 6.0191822 57.109379
37.178596 -98.000336 6.0824404 61.739868
38.720913 -98.048279 6.2899575 66.938995
39.547695 -98.086052 6.2483239 66.202164
40.503803 -98.135437 6.274879 63.026733
41.448151 -98.142677 6.3083587 61.646282
42.261749 -98.191757 6.4106078 60.201172
43.360077 -98.180672 6.3977866 55.989582
45.908669 -98.338158 6.4420853 56.198502
46.599976 -98.377823 6.4544597 57.610474
47.174828 -98.298576 6.4694381 56.735497
55.794884 -98.021248 6.2189417 56.967316
56.446007 -98.026756 6.1496525 57.342976
57.739239 -98.045654 6.4355645 57.040352
58.527988 -98.053932 6.6078715 57.13171
59.516098 -98.104973 6.589334 58.027943
60.52393 -98.147339 6.5908227 57.5919
61.517883 -98.18013 6.6200743 56.638344
62.500637 -98.244003 6.5594831 56.655762
63.522854 -98.295296 6.527956 56.572975
64.497208 -98.329521 6.5489407 57.832626
65.465225 -98.266068 6.5537443 57.655956
66.051773 -98.113831 6.5475478 55.989586
74.822189 -98.677704 6.3287048 62.757557
75.854622 -98.742065 6.3751564 58.573719
76.543129 -98.772224 6.405829 58.474102
77.567818 -98.777588 6.4500446 57.61272
31.01742 -97.041084 6.105752 55.989586
33.487823 -97.097939 6.2264638 56.05854
34.710831 -97.057686 6.2291613 61.588539
35.651535 -97.067871 6.2742729 61.640797
36.514931 -97.3274 6.3111892 64.805061
37.472141 -97.353409 6.3625579 63.73698
38.455193 -97.383057 6.4126554 64.243095
39.654778 -97.186005 6.5044479 72.626106
40.187576 -97.198563 6.5605998 76.543007
41.541515 -97.225189 6.6113997 73.334641
42.562771 -97.325562 6.5962167 72.045433
43.216053 -97.330833 6.5877814 70.952621
44.726254 -97.417976 6.7140508 71.903282
45.53191 -97.465508 6.7505298 70.88578
46.301796 -97.500038 6.7940903 74.356918
47.518764 -97.5382 6.6343436 60.762669
48.501572 -97.585266 6.5597363 59.934673
49.452477 -97.639862 6.5277791 58.392895
50.433487 -97.678535 6.602726 58.482258
51.461124 -97.734589 6.6025496 58.906189
52.55761 -97.789612 6.5878034 58.419765
53.498508 -97.819252 6.6569767 57.948982
54.517471 -97.872444 6.6486163 57.940945
55.463337 -97.908401 6.6317153 57.841156
56.510273 -97.933777 6.7484651 59.603401
57.379002 -97.948006 6.7725496 60.184624
58.412727 -97.956116 6.8268652 57.261322
59.222153 -97.941124 6.9055443 57.32534
60.17997 -97.937088 6.8925085 55.989586
65.860344 -97.36219 6.5798597 55.989586
29.663916 -96.734238 6.0138273 62.225113
30.550751 -96.827255 6.0499883 61.591282
31.563782 -96.870895 6.0823779 61.746155
32.247574 -96.850456 6.104178 65.576027
33.602806 -96.910095 6.173399 62.693398
34.47588 -96.949707 6.2186055 63.62701
35.491013 -96.977264 6.2911162 63.073456
36.210365 -96.980553 6.3444033 61.907639
65.944618 -96.345406 6.4957862 55.98959
66.003082 -96.691284 6.6691399 55.989586
102.08484 -96.62001 6.954308 24.818897
65.975891 -95.633209 6.6354971 55.98959
66.064743 -95.282471 6.6792173 55.989586
66.049744 -94.441895 6.6605759 55.98959
65.993393 -93.742294 6.5637984 55.989586
66.083069 -93.48806 6.4927649 55.989582
78.906349 -93.317314 6.9479647 55.989586
66.131538 -92.40583 6.6115942 56.583408
78.877716 -92.652008 6.9475327 55.989586
79.209747 -92.274498 6.7242074 56.174366
98.796867 -92.705551 6.3615408 21.48563
99.118179 -92.838684 6.3130836 22.660666
46.694687 -91.011955 6.1620708 58.175674
47.5895 -91.033714 6.1828237 59.853992
48.586254 -91.069107 6.2381597 61.001289
49.617249 -91.099068 6.2979231 59.235264
50.560661 -91.123802 6.3763132 57.675922
51.545815 -91.179535 6.4563375 60.588238
52.513962 -91.222328 6.4293251 58.655823
53.532898 -91.246277 6.5717082 57.826923
54.46632 -91.270706 6.6273851 57.814598
55.407906 -91.294594 6.7040305 58.727821
56.438114 -91.328667 6.7567921 57.387333
57.521526 -91.379768 6.8213711 57.739502
58.477657 -91.430962 6.8920941 57.519444
59.48156 -91.495628 6.9327297 58.360092
60.396397 -91.540062 6.9661655 56.496761
66.164856 -91.49823 6.6489949 55.989578
79.193573 -91.408066 6.6473684 56.234016
40.785824 -90.673126 6.0087576 81.012299
41.330978 -90.699677 6.0392179 82.055397
42.659504 -90.799423 6.0508327 96.803604
43.350082 -90.825073 6.0888762 104.58342
44.632221 -90.89402 6.0788479 59.760284
45.584633 -90.929611 6.139266 58.891335
46.279198 -90.956871 6.1874819 62.228077
47.319763 -90.962608 6.1787796 57.164642
49.159554 -90.965363 6.4012027 56.128174
50.271225 -90.882782 6.4854875 55.989586
66.451424 -90.51403 6.6265721 56.780041
67.481461 -90.412964 6.6159878 57.425804
68.50666 -90.460274 6.6195965 58.307022
69.49884 -90.500618 6.6407237 57.775768
70.37812 -90.550484 6.6411595 56.940796
71.116348 -90.556076 6.5909944 56.148373
79.440994 -90.134705 6.6643801 56.407417
79.475639 -89.300438 6.7334428 56.499805
90.791359 -89.137566 6.1052961 11.654193
97.955292 -89.562988 6.2022595 18.298161
98.129799 -89.607956 6.1087751 19.440674
78.982376 -88.734222 6.4701633 55.989586
79.468834 -88.518913 6.6458926 59.125435
102.98993 -88.180931 6.6639132 18.262999
79.560829 -87.715096 6.6716027 64.752998
79.459785 -86.611336 6.4638009 55.989582
107.7419 -86.26712 6.190516 28.646515
79.533234 -85.362793 6.599225 55.989586
79.525391 -84.840111 6.5794415 55.989582
80.11248 -84.961151 6.9201307 55.989586
79.399506 -83.59166 6.1994739 55.989586
81.399185 -83.855537 6.9939113 56.549484
82.17128 -83.192291 6.9450784 55.989586
98.299042 -83.478065 6.0883856 12.909142
101.1833 -83.270142 6.4106946 13.021911
105.97466 -83.145325 6.7242336 15.734086
106.85808 -83.421875 6.6684809 17.772274
107.2594 -83.256126 6.5002289 20.084049
79.558731 -82.645645 6.313736 57.180851
80.207893 -82.637581 6.8714538 55.989582
81.547668 -82.973175 6.9634352 56.545326
82.301613 -82.536705 6.9833341 55.989586
98.206337 -82.552177 6.0802255 12.138232
100.98679 -82.156982 6.5435605 10.42964
101.96956 -82.810822 6.6431594 10.70183
106.18034 -82.958656 6.3936114 19.593857
98.725899 -81.123344 6.3927631 7.7806644
99.7304 -81.07077 6.3069601 10.030439
100.64419 -81.65313 6.4557853 10.255362
104.52473 -81.387543 6.6759243 12.60091
107.47534 -81.410149 6.2384386 21.496859
79.547615 -80.110634 6.6219015 55.989586
80.275383 -80.208954 6.7424817 55.989582
82.455292 -80.429169 6.9019632 55.989586
97.811432 -80.870483 6.032588 10.165808
98.497284 -80.878555 6.1999907 9.4701223
100.36882 -80.825996 6.8220587 56.265396
101.48451 -80.278839 6.8641124 55.989586
105.85781 -80.700645 6.2664561 17.989294
106.17316 -80.53981 6.2592297 18.355541
107.42769 -80.625496 6.2269745 20.651997
79.598808 -79.469917 6.4516873 55.98959
80.688034 -79.824883 6.9830413 55.989586
105.85678 -79.339134 6.7848196 11.041805
107.38381 -79.535088 6.2235684 19.439281
79.652458 -78.502144 6.4999266 55.989586
80.100693 -78.858856 6.9977236 58.274872
86.092728 -78.112747 6.9970374 55.989586
99.354355 -78.238899 6.064271 9.0404873
107.41637 -78.423607 6.222476 18.82023
108.39172 -78.050903 6.2300677 20.74301
109.2867 -78.016182 6.119894 22.985424
79.669914 -77.467667 6.2923303 55.989586
80.470314 -77.696701 6.6604323 58.131268
86.09893 -77.632393 6.9777713 56.265396
99.313515 -77.560226 6.2599778 6.4047232
103.32542 -77.631615 6.5175338 8.8094301
104.93736 -77.380997 6.0938873 14.984032
105.02406 -77.234116 6.0524678 15.128159
107.4841 -77.918884 6.0911903 19.267042
108.40341 -77.809692 6.201581 20.845272
109.40308 -77.954971 6.2081108 23.137249
110.23196 -77.794235 6.1526508 23.454752
79.727142 -76.516739 6.1190047 55.989586
82.364723 -76.081581 6.7337422 55.989582
100.85954 -76.140907 6.3576431 6.0154099
101.63963 -76.43528 6.3464894 7.3615708
102.41029 -76.434219 6.4934273 6.2880058
79.76767 -75.605759 6.428967 55.989586
80.472748 -75.354248 6.7317724 56.359978
82.567505 -75.898712 6.7185221 55.989586
101.27 -75.642159 6.524601 30.885729
102.52179 -75.820648 6.6131525 34.022236
103.53419 -75.403534 6.4721437 7.1479535
79.818932 -74.578949 6.512249 55.989582
80.280556 -74.52713 6.9045596 58.354858
81.420708 -74.606041 6.8421116 56.856316
79.81778 -73.525482 6.6129255 55.989586
80.41288 -73.226494 6.781507 56.902325
81.738335 -73.291763 6.8459539 61.39209
82.331039 -73.73745 6.660048 56.62196
-47.578938 -72.505753 6.7591901 57.733753
-46.418381 -72.568771 6.7777128 57.727795
-45.953392 -72.716347 6.8272319 57.265816
-42.197147 -72.381859 6.9755063 68.047852
-41.888527 -72.275711 6.9024396 59.047096
49.015545 -72.115868 6.6095948 41.728653
50.49292 -72.411491 6.6834683 44.290047
51.028362 -72.129654 6.6785245 46.124016
79.859962 -72.235939 6.552227 55.989582
80.515244 -72.699989 6.7291298 56.682785
81.067024 -72.59803 6.692421 55.989586
82.728333 -72.357437 6.459136 55.989586
-42.152687 -71.510223 6.9257221 65.317574
-41.908852 -71.708672 6.8613009 62.528313
-40.223106 -71.568146 6.6366916 57.001152
-39.433983 -71.414421 6.8612533 58.739037
-38.851021 -71.512344 6.8792868 68.497894
50.543804 -71.736938 6.6291695 41.616528
79.930168 -71.462708 6.7650676 56.012569
80.397408 -71.56147 6.8228111 57.815052
81.945152 -71.724182 6.7062588 55.989586
82.6632 -71.39109 6.6106224 56.314114
-42.11301 -70.441994 6.8845091 68.793839
-41.922646 -70.514496 6.7870269 62.757557
-40.260136 -70.780182 6.7903419 57.841175
-39.81871 -70.882957 6.85533 60.351471
26.882383 -70.570763 6.5659337 44.8204
27.471737 -70.222298 6.542459 44.086983
28.145828 -70.525253 6.5990252 43.31572
30.930756 -70.281723 6.6905127 49.009094
31.408312 -70.142693 6.6865506 42.610844
33.142948 -70.135948 6.7340221 43.17477
48.693104 -70.650566 6.4773502 43.068893
49.742001 -70.128967 6.4684677 45.952206
50.237373 -70.805023 6.5413461 41.433487
79.936806 -70.430305 6.807786 55.989586
80.421143 -70.545578 6.6887708 57.419975
81.678238 -70.869049 6.7572351 55.989586
82.714409 -70.627167 6.6433864 56.024063
83.382904 -70.601692 6.7425957 55.989586
85.502197 -70.807312 6.675518 55.989586
110.77766 -70.090912 6.8564315 7.7880754
-42.082413 -69.455185 6.8300748 67.471458
-41.841099 -69.422554 6.6507525 68.061684
23.292646 -69.070992 6.2940845 41.898891
25.247372 -69.041389 6.3376493 43.072514
27.453657 -69.891487 6.4739866 42.350163
30.574442 -69.720222 6.6027288 43.255184
31.513559 -69.243454 6.6227798 45.128967
32.934586 -69.97467 6.7119217 40.192616
33.10051 -69.975586 6.7058406 42.016857
79.952911 -69.899673 6.8721533 55.989586
80.173233 -69.462639 6.7362971 56.813354
81.391357 -69.919205 6.7008305 55.989586
82.549789 -69.442574 6.5191708 56.128174
85.368454 -69.935539 6.7254763 55.989586
86.515686 -69.833839 6.6016078 55.989586
107.27732 -69.33844 6.1745481 9.7037983
-42.049091 -68.474892 6.7770286 67.228775
-41.906055 -68.404259 6.6253481 67.651199
22.902409 -68.806396 6.2874193 44.981224
23.085779 -68.806297 6.2853394 45.050388
24.974201 -68.967064 6.3248029 42.453037
25.185446 -68.98423 6.379384 44.116192
31.439892 -68.693321 6.5209541 40.407013
51.867661 -68.849442 6.4366894 43.411079
80.38829 -68.443611 6.6114783 57.100414
81.078064 -68.101791 6.6447697 56.543938
82.553673 -68.686714 6.483767 56.763683
