# .PCD v0.7 - Point Cloud Data file format
VERSION 0.7
FIELDS x y z intensity
SIZE 4 4 4 4
TYPE F F F F
COUNT 1 1 1 1
WIDTH 1125
HEIGHT 1
VIEWPOINT 0 0 0 1 0 0 0
POINTS 1125
DATA ascii
-33.417557 -18.637583 -2.463392 5.480958
-32.797192 -18.24931 -2.9188194 14.959108
-30.32082 -18.248573 -2.5876679 7.5135694
-29.710291 -18.383083 -2.6147175 6.0156522
-27.697823 -18.693752 -2.4564331 3.4500692
-26.598265 -18.492838 -2.4623563 4.3421006
-25.642942 -18.485474 -2.5633039 5.09832
-24.613989 -18.715225 -2.7088368 7.4445901
-23.531433 -18.429668 -2.6595957 6.382093
-22.930079 -18.410818 -2.5642037 3.6574211
-21.955069 -18.501305 -2.4292815 2.0126688
-18.588165 -18.161392 -2.2583442 0.44791669
-17.298067 -18.630768 -2.1610823 1.5139041
-55.163731 -17.277977 -2.7031002 18.728191
-37.248062 -17.424154 -2.3145118 4.3479233
-34.274616 -17.438547 -2.4680014 3.9862204
-33.757526 -17.697287 -2.5021474 4.3361931
-30.404097 -17.380417 -2.5567191 6.1151786
-29.515812 -17.679474 -2.7313466 6.5258117
-28.043488 -17.276163 -2.5092165 3.3078904
-27.717136 -17.351488 -2.1764503 0.45917088
-26.59654 -17.455702 -2.3460956 2.3516958
-25.500942 -17.606606 -2.2528496 1.6204879
-24.416903 -17.503349 -2.3947237 3.0293155
-23.462805 -17.418631 -2.6829913 6.3584309
-22.928333 -17.874756 -2.5785894 3.6383612
-21.883835 -17.586506 -2.4502721 1.9678206
-18.513744 -17.13262 -2.2446101 0.44791669
-17.310688 -17.441259 -2.2368622 2.1439369
-55.38723 -16.390375 -2.7777743 18.488903
-37.594795 -16.352219 -2.3541009 4.638267
-36.158417 -16.461233 -2.648592 6.4658933
-35.867714 -16.047497 -2.6470327 6.3403988
-34.325344 -16.535856 -2.4757793 3.787735
-33.586296 -16.390541 -2.7837267 10.352728
-32.417198 -16.190962 -2.9961534 13.944962
-30.436863 -16.676283 -2.6123707 6.1749754
-29.698627 -16.992966 -2.6578927 5.5566378
-27.223383 -16.528227 -2.3812196 1.6915869
-26.735807 -16.42465 -2.5130713 3.6512864
-25.407099 -16.562023 -2.5934155 5.505466
-24.902876 -16.587193 -2.0249157 0.48864335
-23.480288 -16.482536 -2.738934 7.3169627
-22.031597 -16.143219 -2.4959519 2.0668683
-21.986109 -16.668488 -2.4797857 2.0509567
-18.427834 -16.401281 -2.19768 0.44791669
-16.983349 -16.631323 -2.313076 2.6674337
-55.55426 -15.655038 -2.8486948 19.503246
-40.062035 -15.400729 -2.472558 6.8288727
-36.212143 -15.762834 -2.6696367 6.5178604
-34.132324 -15.861934 -2.5225408 3.872129
-33.44091 -15.47114 -2.5946889 5.8097897
-32.179718 -15.892297 -2.9918175 13.71524
-30.746279 -15.768217 -2.443428 2.2296
-29.878242 -15.02758 -2.784441 6.6044688
-27.180592 -15.197191 -2.3723745 1.3201195
-26.701609 -15.638686 -2.4798136 2.7729471
-25.33317 -15.644414 -2.8257387 8.1282978
-23.61743 -15.274211 -2.4968588 5.1744423
-22.047138 -15.209993 -2.5212879 2.117161
-21.838654 -15.756689 -2.4965813 1.9405558
-16.777624 -15.234089 -2.4634349 3.7879708
-55.803902 -14.203999 -2.7621002 21.580654
-40.136524 -14.699574 -2.4923108 6.9714284
-35.392891 -14.142971 -2.7042961 6.3726606
-34.239735 -14.099133 -2.3767238 1.7702441
-33.543133 -14.660452 -2.5142715 3.4576166
-30.246405 -14.719021 -2.6942699 5.1956601
-29.573563 -14.364472 -2.7636344 5.7344689
-28.726801 -14.679627 -2.5584321 3.3344131
-27.448112 -14.467536 -2.451627 2.6835115
-26.757914 -14.780992 -2.4696045 3.1889467
-24.144917 -14.259837 -2.4512291 2.0115886
-23.611351 -14.532004 -2.5224214 4.9967303
-22.292645 -14.673309 -2.5475097 2.2965412
-21.480419 -14.05969 -2.5232217 1.6471629
-20.607082 -14.366219 -2.471936 0.9789812
-17.956429 -14.24827 -2.6505473 4.829906
-16.828163 -14.357254 -2.6029005 4.464962
-56.044273 -13.00892 -2.8975201 27.224014
-55.857948 -13.629767 -2.7898552 22.754684
-36.151344 -13.80948 -2.7188077 6.5506134
-35.365047 -13.414589 -2.6812434 5.5987635
-34.844151 -13.570057 -2.4136066 2.3025193
-33.857742 -13.524734 -2.4738398 2.5284121
-31.173515 -13.493391 -2.4619601 1.9337533
-30.691608 -13.437359 -2.7454429 5.6131067
-29.51619 -13.514287 -2.6258585 3.8976378
-28.320274 -13.664503 -2.4567943 1.7823037
-27.494452 -13.539807 -2.4612792 2.7241662
-26.805855 -13.246716 -2.879909 6.6758199
-25.288221 -13.492826 -2.103482 0.47955498
-24.579245 -13.539192 -2.1351004 0.46490586
-23.558197 -13.66728 -2.8158476 7.5780921
-22.417778 -13.347365 -2.5881751 2.4373744
-20.787357 -13.839174 -2.4945743 1.1561254
-18.188385 -13.530991 -2.1477525 0.44791669
-17.953545 -13.799927 -2.6915226 5.5329404
-16.790386 -13.336325 -2.6370094 5.2337966
-56.131104 -12.496563 -2.8439028 17.772055
-37.725086 -12.7331 -2.8155766 7.8227816
-34.598576 -12.160871 -2.0073915 0.45012316
-33.512024 -12.405146 -2.4886212 2.398946
-32.455921 -12.766922 -2.5359354 2.938113
-31.853977 -12.403563 -2.5195401 2.5757556
-30.626749 -12.688072 -2.8588054 6.6541543
-29.640129 -12.952456 -2.6823459 3.8401344
-28.666134 -12.834705 -2.3376431 0.46858975
-27.256245 -12.642439 -2.2976999 0.94911951
-26.720137 -12.581349 -2.5761211 3.5118778
-25.363928 -12.581725 -2.3476171 2.1493454
-24.552908 -12.349079 -2.3058732 1.7446046
-23.830223 -12.848664 -2.677882 4.0554132
-22.83625 -12.528008 -2.6300452 2.8685195
-21.433796 -12.314253 -2.0365548 0.48668411
-20.788883 -12.528874 -2.1650608 0.45776486
-16.579266 -12.48106 -2.5206254 5.8407784
-56.34116 -11.599096 -2.9243014 18.97897
-34.445908 -11.256659 -2.6578844 4.1374969
-33.391975 -11.477321 -2.5424461 3.2057648
-32.644661 -11.515486 -2.6958096 4.7057629
-30.294033 -11.524145 -2.5156891 2.4475117
-28.343147 -11.14012 -2.9590731 6.8915024
-27.296532 -11.570924 -2.3054483 0.45874134
-26.817041 -11.760509 -2.6406167 3.8550966
-25.431526 -11.544591 -2.476697 2.8742802
-24.63464 -11.463825 -2.4462075 2.5520902
-22.598345 -11.417242 -2.3796477 1.7019455
-21.527111 -11.770674 -2.0509627 0.49660328
-17.992279 -11.727919 -2.1762242 0.44791669
-6.0583649 -11.230602 -2.1197553 0.44791669
-43.07053 -10.191432 -2.7180595 7.7150664
-37.226494 -10.327563 -2.2605143 0.70838886
-36.790504 -10.31184 -2.6218832 5.1046638
-34.7038 -10.155256 -2.4895518 2.2160563
-33.387569 -10.669084 -2.6383519 3.8364618
-32.892475 -10.530492 -2.7322769 4.9991779
-30.189919 -10.540098 -2.5362699 2.5341468
-29.820957 -10.62044 -2.3639412 0.46904159
-28.355648 -10.511503 -2.6804838 3.9587784
-27.17754 -10.262105 -2.7597027 5.1767721
-26.88941 -10.027038 -2.8094254 4.5810828
-25.409908 -10.775093 -2.4954519 2.9276376
-24.34989 -10.683364 -2.7985902 4.7683392
-22.566395 -10.492905 -2.4014926 1.7088019
-21.763739 -10.95842 -2.0871747 0.47872403
-18.048803 -10.552317 -2.1632767 0.4501341
-12.077368 -10.708125 -2.6463199 4.9996419
14.292471 -10.621369 -2.3063161 2.8823693
-42.963078 -9.8989553 -2.7178111 7.4118762
-36.662029 -9.497551 -2.7444267 5.8844848
-34.630527 -9.9360609 -2.4306381 1.3516085
-33.202991 -9.2615929 -2.7789252 5.2229061
-32.7621 -9.8578339 -2.7436674 4.8726573
-31.35141 -9.2835245 -2.8570404 5.4682765
-30.435524 -9.7830486 -2.8018208 4.6743679
-29.42244 -9.3613424 -2.5825109 1.7859901
-28.749779 -9.9642191 -2.9782815 6.974905
-27.59676 -9.4464703 -2.7760229 4.178462
-26.575317 -9.5572243 -2.7078829 3.651036
-22.274963 -9.7766771 -2.1384199 0.48092106
-21.328266 -9.3049831 -2.1100402 0.45012316
-20.633554 -9.2884035 -2.3634911 2.9140556
-43.119823 -8.4912167 -2.7425804 7.5759115
-42.98254 -8.7660751 -2.7336297 7.3593211
-36.506779 -8.067831 -2.4651628 2.3344803
-34.258606 -8.4578438 -2.5465994 2.5847931
-33.68539 -8.2757511 -2.9465959 7.1735716
-31.692284 -8.3371487 -2.1468501 0.46982229
-29.641258 -8.5778189 -2.6122937 1.9492729
-28.347336 -8.234808 -2.2048607 0.46619898
-27.185013 -8.6149101 -2.2378399 0.45927525
-26.592548 -8.7831488 -2.8044217 4.0896916
-36.379398 -7.4081078 -2.4838128 1.8689847
-34.148102 -7.2324762 -2.5616875 2.5242333
-33.508114 -7.5798826 -2.4897757 2.3864353
-32.026634 -7.881938 -2.2077093 0.51334274
-29.901432 -7.9066458 -2.5170777 0.48648876
-28.301971 -7.9943304 -2.2063637 0.47591147
-24.089081 -7.1514421 -2.0617521 0.4886364
-36.512489 -6.4687214 -2.5110235 1.8723083
-31.974899 -6.4994192 -2.3814242 0.44791669
34.655575 -6.4652481 -2.3639002 12.869508
-57.491623 -5.8028812 -2.0604062 8.1170015
-39.395195 -5.364337 -2.6798472 5.1755657
-31.879473 -5.581779 -2.3925588 0.45462465
-30.665459 -5.7544518 -2.3415034 0.46858975
-23.894127 -5.1113033 -2.0826542 0.48603725
-57.71521 -4.5069957 -2.0926428 10.892132
-39.63435 -4.8041515 -2.6985576 5.2977657
-32.23584 -4.0020962 -2.4320328 0.44791669
-24.006805 -4.6984091 -2.0962465 0.46858975
-23.906719 -4.5283451 -2.0708642 0.49958253
-57.756214 -3.6108789 -2.2512901 11.457173
-55.60133 -3.1790285 -2.0500743 6.5133338
-49.80735 -3.3256023 -2.37325 5.5017262
-42.094524 -3.7633429 -2.8126299 7.1933122
-40.893478 -3.0737724 -2.0866776 0.46858975
-27.45842 -3.642669 -2.2502816 0.47843814
-23.84956 -3.8263335 -2.020649 0.671875
13.114134 -3.1992023 -2.7001152 2.770956
-58.606228 -2.4982381 -2.2173357 9.4450445
-46.360523 -2.2929828 -2.3800058 4.6442804
-44.921768 -2.1552725 -2.0681784 0.45917088
-41.578865 -2.839283 -2.1099699 0.44791669
-40.025024 -2.5577445 -2.0645385 0.45687503
-39.801151 -2.1842401 -2.0609736 0.47845563
-26.428694 -2.2904325 -2.2316308 0.47605157
-24.492168 -2.1807604 -2.2411013 0.53435677
9.7797089 -2.0388339 -2.0350721 0.53648204
-59.977333 -1.7809694 -2.014267 7.7815814
-55.499321 -1.3049697 -2.1669204 6.8425407
-46.337395 -1.5489329 -2.4772773 5.4954691
-45.687889 -1.5227249 -2.0957057 0.62892699
-43.388111 -1.2436634 -2.5421653 4.7302308
-42.995926 -1.5895007 -2.1648731 0.59552014
-40.200027 -1.5615652 -2.3881898 2.7754629
-39.678806 -1.8474915 -2.3955545 2.4878161
-27.029911 -1.8549472 -2.1628602 0.45687503
-26.827736 -1.7935405 -2.2554388 0.46858975
-24.230898 -1.308882 -2.1959596 0.50950527
-23.716385 -1.4331408 -2.1001294 0.46244419
-14.112116 -1.0056678 -2.3734376 0.47840318
-13.345217 -1.1896379 -2.2547402 0.46594912
-12.616889 -1.2401948 -2.1201334 0.49165064
-10.833486 -1.21478 -2.2530057 0.47208405
-9.2523489 -1.1397011 -2.1185555 0.46806034
-5.106276 -1.1480383 -2.0704718 0.58456975
-4.5623589 -1.1496236 -2.0348246 0.63327038
-3.605545 -1.1299684 -2.0260501 0.56244087
-2.2105496 -1.1883751 -2.0200326 0.65023375
0.51436532 -1.2585869 -2.0426908 0.59379458
1.700753 -1.2681468 -2.059799 0.61950934
3.7378643 -1.1839181 -2.0479498 0.56165272
4.3728938 -1.3318584 -2.0471683 0.59082294
8.4802971 -1.0970402 -2.0940588 0.49754381
9.5415316 -1.5135516 -2.0433629 0.50420576
26.499226 -1.561282 -2.9823358 5.7352772
94.236671 -1.2157701 -2.5804889 25.430107
-55.462284 -0.10957889 -2.3469212 8.8418732
-46.561775 -0.81320417 -2.2868338 3.4468811
-44.227753 -0.31284732 -2.3946164 3.8390512
-43.565578 -0.2045325 -2.1601543 1.009263
-42.59655 -0.27234876 -2.866293 7.2041416
-28.203308 -0.69712901 -2.3107803 0.45687503
-27.024162 -0.50146532 -2.2666276 0.48092106
-26.717072 -0.16023064 -2.2587659 0.50905693
-24.017963 -0.40069771 -2.2517688 0.45235151
-23.726357 -0.8930912 -2.1469975 0.46148995
-14.261813 -0.44587469 -2.1995466 0.47693512
-13.198028 -0.78545994 -2.1745913 0.4581877
-12.486546 -0.44252166 -2.0555081 0.47110537
-10.766932 -0.2329905 -2.2568338 0.44865218
-9.3489828 -0.42148757 -2.1078329 0.47042739
-5.1707196 -0.50114369 -2.0794129 0.4910287
-4.4944415 -0.50526536 -2.0358198 0.50477976
-3.5796585 -0.49468151 -2.0297136 0.4906162
-2.2362192 -0.50012892 -2.0274103 0.5159322
0.59302759 -0.47161946 -2.1719515 0.48918295
1.5879517 -0.4667981 -2.0742712 0.4906843
3.7478409 -0.51557201 -2.053431 0.48720679
4.28442 -0.4714376 -2.09759 0.47841734
8.4849434 -0.50462621 -2.1007049 0.49114481
9.5986252 -0.68149883 -2.0495331 0.48587343
27.560951 -0.091595158 -2.985254 2.6597075
28.170116 -0.38451034 -2.0566456 3.8740668
94.095894 -0.79243976 -2.5963068 25.071253
-67.329292 0.87255794 -2.0913188 13.905331
-55.402733 0.69075829 -2.4448962 9.6985502
-44.283581 0.22551465 -2.1231539 1.0473378
-43.496983 0.26777864 -2.2691677 2.2391198
-42.874008 0.30334401 -2.8840685 7.5065212
-33.615936 0.24919605 -2.5004988 0.44791669
-27.029888 0.17446303 -2.2246194 0.44791669
-26.526098 0.48250359 -2.3135691 0.48971951
-23.649483 0.2945621 -2.0300841 0.45687503
-14.326603 0.42353323 -2.2095072 0.47865471
-13.47673 0.17435187 -2.1565266 0.45603615
-12.537141 0.34970021 -2.0918047 0.4517673
-11.038307 0.71896923 -2.2801158 0.46148995
-10.899724 0.49274573 -2.270335 0.45435792
-9.3503523 0.51282829 -2.115258 0.46697065
-8.9934673 0.53883982 -2.0039561 0.47470418
-5.3585505 0.50917077 -2.0989404 0.47823751
-4.4527755 0.49069345 -2.0414817 0.48267499
-3.508276 0.48872247 -2.0338418 0.47906235
-2.3662348 0.48208112 -2.0440168 0.48670769
0.51426089 0.50178874 -2.2519019 0.4855867
1.5002594 0.10906339 -2.0852599 0.46619898
2.8054976 0.47410464 -2.1698108 0.48898342
3.4334209 0.37201056 -2.0797653 0.50866431
4.3228621 0.35850933 -2.0970113 0.49311748
8.5812874 0.142574 -2.1015141 0.47283173
9.8624458 0.47288066 -2.0611069 0.5156455
10.066547 0.84869111 -2.0380867 0.5894562
-67.774399 1.5686911 -2.1631422 14.660055
-66.821381 1.2400135 -2.1682801 13.985859
-55.443535 1.5948292 -2.5761776 11.032323
-50.514393 1.962967 -2.4335217 6.4897079
-44.448227 1.089426 -2.9551997 8.7918997
-33.493767 1.14131 -2.1213517 0.44957703
-30.936745 1.4054995 -2.445025 0.45235151
-14.021731 1.4607749 -2.3880682 0.45235887
-13.91748 1.3180321 -2.3810222 0.45764032
-11.01503 1.2344761 -2.2831631 0.46149778
-10.982004 1.5555675 -2.2840574 0.45688644
-9.4350967 1.3133605 -2.1559391 0.47301811
-5.6009164 1.2342571 -2.1196241 0.47028235
-4.6725492 1.443254 -2.0628157 0.49217123
-3.4984653 1.1282705 -2.0389619 0.48092997
-2.4545021 1.0063708 -2.0542073 0.47840318
-1.5692291 1.3872621 -2.0035653 0.45235151
0.38803205 1.3060497 -2.3431602 0.4970642
2.5261879 1.2373372 -2.3463316 0.48287654
3.7557144 1.0830643 -2.1677132 0.49126345
4.0954666 1.2022444 -2.1813393 0.50867826
7.7773166 1.4271011 -2.0392578 0.60097951
8.3569603 1.6595615 -2.0192046 0.55790448
9.9224863 1.4645431 -2.0834968 0.62460196
10.078639 1.7010026 -2.0621109 0.64042068
-68.789322 2.8736081 -2.1452167 15.468975
-55.303162 2.6552215 -2.5201344 10.515279
-50.360146 2.3539915 -2.4012339 6.2990613
-49.820076 2.6361928 -2.2397723 4.2138295
-48.650032 2.6856391 -2.3091862 4.5320344
8.3598289 2.3717954 -2.0273223 0.61993265
9.1957912 2.5790505 -2.0313277 0.54699451
10.179278 2.2246242 -2.0621262 0.62927324
-69.561028 3.0214791 -2.0975225 15.951256
-55.237919 3.5718653 -2.3805523 8.8954878
-48.368294 3.0834398 -2.084183 1.8496892
-43.515419 3.7176447 -2.5405579 4.8685055
-42.846989 3.7477689 -2.6013498 5.1843696
8.4503078 3.5301354 -2.1055167 0.63753188
9.2997284 3.4230256 -2.0346227 0.53250712
10.245209 3.0715582 -2.0832839 0.57468557
21.576252 3.122618 -2.6082783 11.668728
56.809631 3.976737 -2.1677189 15.035767
-68.236877 4.5548062 -2.1436605 14.983574
-67.192413 4.6099448 -2.1707728 14.205772
-55.21476 4.5873199 -2.3077917 8.0449486
-54.493309 4.8209615 -2.265368 6.8892002
-55.202202 5.0948081 -2.3541837 8.4706697
-53.904358 5.6215138 -2.2546718 6.5288582
-64.741623 6.9769888 -2.0189083 12.126015
-34.919964 6.6404324 -2.7497282 2.6320698
-33.103909 6.5717974 -2.6760249 1.1241618
-29.230358 6.353591 -2.5176377 0.46858975
27.046589 9.8747387 -2.5426636 10.744679
58.749508 10.732913 -2.7093318 9.7121344
29.805401 20.132788 -2.7079377 5.5642877
30.039249 20.170885 -2.7034421 5.7073183
-41.492554 -68.295082 -1.4190886 27.390345
-41.90115 -67.997467 -1.3475642 25.790491
-70.838295 -66.161652 -1.2632629 40.579815
-53.938622 -66.608017 -1.1288462 26.801476
-30.951694 -43.142155 -1.4585402 3.111347
-21.452545 -43.406559 -1.1505122 0.44791669
-23.432671 -37.889603 -1.2283185 0.45921725
-26.027447 -36.175781 -1.4018558 0.50763893
-25.712955 -36.287933 -1.3885303 0.51334274
-21.290529 -36.372211 -1.1880289 0.48804557
-20.53389 -36.47681 -1.1888586 0.46015295
-17.458008 -36.458824 -1.0343374 0.46763909
-6.7354259 -32.132172 -1.3731663 0.80153513
-5.2934389 -32.206253 -1.0155262 0.63800478
-34.159592 -30.041065 -1.8691106 2.9237106
-33.165573 -30.071331 -1.8743588 2.3096828
-31.551416 -30.096922 -1.8098018 0.92468536
-30.382605 -30.153923 -1.7911822 0.45470333
-29.703814 -30.265894 -1.7658101 0.45702147
-28.693192 -30.302132 -1.7619096 0.45705783
-27.714027 -30.724031 -1.7572722 0.50206047
-25.828953 -30.530094 -1.7020631 0.47272995
-5.3155746 -30.830107 -1.2683936 0.96184212
-44.310112 -29.736324 -1.3228652 0.48715389
-42.554966 -29.545462 -1.2680454 0.57177311
-38.413258 -29.341866 -1.0586808 0.48551661
-35.131157 -29.943436 -1.9095783 3.6825347
-31.693237 -29.721634 -1.9323325 0.6725564
-30.735147 -29.750006 -1.903422 0.49385691
-29.863297 -29.668554 -1.8759418 0.44791669
-27.657854 -29.347666 -1.788277 0.45401487
-26.142384 -29.92944 -1.7745867 0.46619898
-21.21529 -29.312927 -1.5025997 0.44791669
-6.0511341 -29.126974 -1.3710511 0.454602
-5.8261256 -29.330143 -1.3635385 0.4908084
-42.800144 -28.293406 -1.4082437 0.54515332
-41.222038 -28.102434 -1.2897564 0.44791669
-38.296265 -28.69105 -1.1366749 0.54973215
-27.872952 -28.531763 -1.8209715 0.44791669
-24.435974 -28.069824 -1.6973944 0.44791669
-42.782028 -27.45924 -1.460252 0.56723195
-30.590805 -27.396093 -1.9331713 0.48140115
-24.618044 -27.135859 -1.7255354 0.45013046
-42.809139 -26.381882 -1.1806132 0.56626755
-24.719727 -26.962219 -1.8569431 0.44791669
-5.5646353 -26.822884 -1.0557985 0.44791669
-3.0627117 -26.605581 -1.2320993 0.56058288
-2.6197672 -26.526596 -1.1911269 0.59053588
-45.280804 -25.713736 -1.1694204 0.45927072
-44.70718 -25.663221 -1.1275839 0.45391941
-43.418068 -25.964716 -1.0404305 0.50023234
-33.607502 -25.461817 -1.2835454 0.50533092
-21.277418 -25.475739 -1.5296699 0.46033043
-18.78389 -25.442499 -1.6650656 0.51570952
-4.2455058 -25.347342 -1.3134906 0.53191596
-3.7206388 -25.493702 -1.247915 0.56143248
-2.617681 -25.321411 -1.1816541 0.49985877
5.3490481 -25.379406 -1.0237644 0.52238399
27.49267 -25.792381 -1.1023592 8.602869
28.49947 -25.852152 -1.0894986 8.6973982
29.164194 -25.888418 -1.0816878 9.2757235
-33.698181 -24.807404 -1.2553946 0.49126345
-30.44907 -24.441172 -1.3404458 0.52441645
-29.605946 -24.358589 -1.4291874 0.51242149
-18.697723 -24.394892 -1.6684611 0.46619898
-7.4884534 -24.258545 -1.098837 0.45576739
-4.6885281 -24.559156 -1.3272494 0.525442
3.5071304 -24.125082 -1.1307334 0.68106711
26.840635 -24.379301 -1.0533925 7.575458
27.561794 -24.246365 -1.0444583 7.2377653
28.396002 -24.113144 -1.0399141 7.5802817
29.099203 -24.05455 -1.0062109 6.9501815
32.355042 -24.04496 -1.0243292 5.455349
48.388317 -24.238619 -1.3856 2.0203478
-31.125809 -23.657343 -1.2035917 0.49391896
-30.252317 -23.914789 -1.1546094 0.52817923
-7.6149368 -23.238396 -1.3623489 0.48569751
-4.7887349 -23.238478 -1.0161526 0.47433576
0.86258429 -23.058809 -1.2034522 5.5455289
1.3564529 -23.099009 -1.206394 6.5019112
2.4171867 -23.092804 -1.2142419 7.6024513
3.6700122 -23.38825 -1.1336877 0.63590211
5.8620191 -23.320564 -1.2282577 6.3963537
6.2289181 -23.353268 -1.2328629 6.4626026
8.5003815 -23.074297 -1.2848779 7.5259275
17.774927 -23.211718 -1.2406447 9.7810173
19.761904 -23.144829 -1.1789997 8.5478983
23.585018 -23.568752 -1.087719 6.7712851
26.499805 -23.37879 -1.0191129 6.899961
27.253994 -23.627647 -1.0387707 6.6668406
28.6126 -23.645126 -1.0415685 6.9979324
29.400549 -23.525459 -1.0284522 7.0901837
30.233288 -23.525312 -1.0408406 7.6544657
31.647764 -23.231113 -1.0587538 5.5820193
32.227627 -23.91169 -1.0328531 5.9724092
120.60902 -23.630299 -1.3062787 35.372772
-33.409512 -22.85697 -1.3664531 0.44791669
-30.819107 -22.67568 -1.2644088 0.53750002
-27.603554 -22.2407 -1.1294016 0.5165965
-21.004158 -22.302618 -1.4458799 0.47840318
-7.5832477 -22.753458 -1.3658999 0.48802856
-5.0254765 -22.063452 -1.062169 0.46033043
-4.8167677 -22.358847 -1.1933377 0.51497537
0.59800088 -22.189016 -1.1603435 5.9638853
2.7408822 -22.455912 -1.1825228 8.1851664
3.5772955 -22.541056 -1.167431 1.9909413
4.7323914 -22.796919 -1.1084588 3.4016418
5.1264014 -22.787239 -1.104278 4.6512251
6.5292263 -22.118166 -1.0039736 1.0232288
8.9167185 -22.976774 -1.2893286 8.6431208
15.865508 -22.636734 -1.2451843 10.314651
17.588055 -22.119499 -1.1613246 1.6367325
18.131519 -22.133202 -1.1485604 9.7030716
19.736006 -22.831165 -1.178612 8.6624699
20.643866 -22.201553 -1.0099682 0.6483478
23.612766 -22.016626 -1.0151923 11.874013
24.396969 -22.620176 -1.1351805 10.615135
26.030167 -22.993525 -1.0226184 7.1235967
28.995628 -22.668213 -1.0323746 6.9197292
29.833191 -22.47653 -1.0372672 4.9297585
30.638594 -22.052423 -1.1131849 8.0245829
31.03204 -22.060507 -1.0457242 8.7313223
32.50132 -22.102474 -1.0727065 10.143192
-54.484283 -21.216982 -1.5540448 4.7166147
-35.966866 -21.102152 -1.9097583 0.54715574
-33.525551 -21.541803 -1.6374083 0.61640161
-31.640247 -21.274853 -1.6264749 0.49300385
-5.078064 -21.972477 -1.1439369 0.45012316
-4.7963204 -21.250408 -1.2543344 0.5934931
-2.6256886 -21.868988 -1.2582027 0.61063892
-0.030330658 -21.568045 -1.1494861 5.5349412
0.23769772 -21.604914 -1.1489996 6.4115415
2.9333029 -21.148384 -1.2851993 0.73766279
3.6225886 -21.356564 -1.155112 0.59938306
5.5837278 -21.383171 -1.2288166 5.1328392
6.5675058 -21.32053 -1.1232849 10.235972
7.6110392 -21.276037 -1.1821656 7.8064785
8.1916113 -21.909452 -1.1589136 6.1546993
9.8746223 -21.208076 -1.101855 5.4321461
10.465732 -21.263678 -1.0629535 4.2793136
13.568102 -21.132404 -1.2036095 7.5389042
14.323831 -21.38533 -1.3669029 2.7882974
15.369422 -21.437752 -1.3948317 0.64282387
16.723419 -21.425352 -1.2903931 0.68486559
17.346779 -21.493254 -1.2512388 3.172786
18.535791 -21.358404 -1.1767827 4.0855508
19.499395 -21.286705 -1.1115055 3.3240438
20.445873 -21.464338 -1.0648905 2.331182
21.593307 -21.188272 -1.0902503 2.8065178
22.428774 -21.132908 -1.0512466 5.3305945
23.585007 -21.50832 -1.0551789 42.461239
24.493156 -21.185038 -1.0927995 9.304244
25.533426 -21.424227 -1.1145127 3.0211926
26.400555 -21.296753 -1.0705082 2.713906
27.693796 -21.293156 -1.0271494 4.4686937
28.234095 -21.467981 -1.0962365 5.1511087
29.621403 -21.341442 -1.0651681 7.7654123
30.39735 -21.423134 -1.0489566 5.5317392
31.508436 -21.44121 -1.0745929 5.6685705
32.324326 -21.400173 -1.0674269 6.9618587
33.542194 -21.653122 -1.111025 11.056084
-54.578377 -20.673992 -1.6096935 4.647202
-36.116158 -20.881458 -1.9178138 0.48346564
-34.099529 -20.807331 -1.8039265 0.4886364
-33.872227 -20.580727 -1.7994466 0.50023508
-32.172619 -20.401596 -1.6736244 0.46530738
-31.716078 -20.617163 -1.6437746 0.47962502
-27.87257 -20.783871 -1.9960078 0.46860206
-25.233007 -20.28734 -1.9303284 0.50565523
-24.529274 -20.671154 -1.8738517 0.5013209
-23.034 -20.695358 -1.8885646 0.49011898
-22.933041 -20.120434 -1.8994303 0.49931693
-20.733837 -20.116665 -1.8079391 0.46619898
-7.4388142 -20.11298 -1.3765147 0.60794979
-5.0582595 -20.19149 -1.1572477 0.58627838
-4.8521318 -20.491032 -1.3710701 0.72771055
-0.37171432 -20.140482 -1.0944229 15.214996
0.049423456 -20.170704 -1.0763875 4.4687943
1.8021073 -20.196648 -1.2356064 6.1970983
2.7358878 -20.587563 -1.2106748 6.162024
3.5621796 -20.750298 -1.1776208 1.9799743
4.7816629 -20.305794 -1.1893376 5.3099613
5.4936495 -20.455509 -1.1979129 5.5128174
6.496417 -20.461693 -1.2368814 9.9624853
7.451879 -20.505047 -1.2232982 10.484865
8.5602522 -20.507269 -1.1644672 12.554644
9.5146408 -20.470554 -1.2354568 16.893013
10.493949 -20.328026 -1.2005967 6.8753562
11.533448 -20.30015 -1.198974 7.6263599
12.448054 -20.322237 -1.2235175 8.459219
13.503495 -20.350613 -1.2097704 8.2054663
14.548573 -20.383507 -1.238313 6.6209226
15.496014 -20.416821 -1.2498808 5.870779
16.493284 -20.583292 -1.2260045 7.5371304
17.448437 -20.586962 -1.1878165 7.416625
18.482761 -20.628885 -1.1529716 4.5790291
19.425459 -20.773617 -1.1059425 6.669476
20.478489 -20.659 -1.0800135 3.4117451
21.4988 -20.786591 -1.056324 5.1262197
22.442142 -20.661283 -1.0887494 5.2414947
23.426538 -20.622473 -1.1086597 6.0469832
24.558237 -20.471178 -1.156988 2.3111627
25.531507 -20.581495 -1.1372304 0.53740311
26.457083 -20.522583 -1.1243438 3.1466601
27.499002 -20.617031 -1.1092459 5.4083395
28.550085 -20.243105 -1.1297948 6.2542367
29.566696 -20.533468 -1.0607393 4.6744914
30.508036 -20.433468 -1.0297958 5.6522422
31.196396 -20.609104 -1.0662453 2.3398254
-54.865524 -19.350365 -1.3984865 2.4706552
-27.001858 -19.690048 -1.9950542 0.47100517
-26.730425 -19.337572 -1.9814283 0.47643313
-25.221046 -19.781324 -1.9429957 0.49040654
-24.855963 -19.359728 -1.9389426 0.48177373
-23.949821 -19.168045 -1.9192653 0.48092106
-22.682632 -19.534512 -1.9042752 0.50003266
-20.778423 -19.275578 -1.6116278 0.47667816
-19.728392 -19.286966 -1.2241402 0.60845846
-13.052444 -19.808537 -1.4458656 0.55948001
-12.515629 -19.471611 -1.4062419 0.44791669
-8.2467127 -19.273838 -1.3138998 3.1558647
-7.4805698 -19.56735 -1.5152817 0.80068821
-6.1617522 -19.324209 -1.368379 1.805673
-5.2410321 -19.596218 -1.1764361 3.4249959
-4.8985682 -19.827616 -1.4280027 0.80427068
-2.0223141 -19.909878 -1.526582 1.3239285
-1.1740506 -19.265797 -1.1164999 7.2917109
-0.99566126 -19.380552 -1.1878879 7.3673344
0.92859584 -19.666758 -1.1245615 5.6409898
1.606403 -19.485432 -1.2989688 7.3149462
2.6577668 -19.505402 -1.2844894 5.7783756
3.444474 -19.753695 -1.2268428 6.1600766
4.3220172 -19.827467 -1.1667428 5.1798139
6.4561715 -19.54875 -1.4579021 6.9463234
7.7206268 -19.365768 -1.2954717 6.3003602
8.4704981 -19.389439 -1.2451152 6.808918
9.3106031 -19.647886 -1.3888265 4.8385963
11.553885 -19.29438 -1.5215936 3.0817904
12.342466 -19.389132 -1.2915311 6.9110498
13.229609 -19.724203 -1.4833636 2.4905136
14.32809 -19.520012 -1.6456102 0.54889393
15.431388 -19.496984 -1.4701713 0.52574724
16.660297 -19.549997 -1.3923333 1.7453743
17.117897 -19.622066 -1.3896598 1.8113039
19.297367 -19.5196 -1.3657171 0.51393992
20.877642 -19.595549 -1.2443628 2.373651
21.541697 -19.525381 -1.1940136 3.784373
22.448488 -19.693747 -1.1858765 3.553525
23.5252 -19.285435 -1.2614729 0.5233953
24.526432 -19.603001 -1.2151029 1.850529
25.385391 -19.639154 -1.1767635 2.5327868
26.285023 -19.484529 -1.246734 0.4966979
27.372334 -19.390293 -1.1368526 5.0990043
28.606642 -19.380814 -1.2089244 2.1397901
29.665897 -19.371412 -1.0709741 4.8244896
30.390476 -19.516289 -1.0577568 4.0825753
31.354963 -19.439322 -1.1109017 2.0848787
-55.03944 -18.241528 -1.6950282 4.7201777
-54.976131 -18.676376 -1.5931964 4.639329
-40.516415 -18.473509 -1.2191114 0.47853419
-26.641289 -18.727253 -1.9912701 0.4809244
-24.351059 -18.532375 -1.9427047 0.52596807
-23.71629 -18.41029 -1.9165536 0.50053692
-22.389807 -18.503239 -1.9187829 0.50152981
-20.773573 -18.82119 -1.7643793 0.46469411
-19.799347 -18.422117 -1.2125392 0.66377568
-18.867163 -18.140331 -1.08234 0.50497299
-17.692795 -18.427277 -1.6072375 0.54681355
-9.3558178 -18.318661 -1.0761445 4.6767092
-8.6274071 -18.80093 -1.1022241 5.1058993
-6.487607 -18.649775 -1.1010923 8.5950451
-5.809144 -18.683136 -1.1167275 6.0792694
-4.3912697 -18.616035 -1.7812301 3.4697907
-2.1170864 -18.655771 -1.1866757 6.3481665
-1.2347536 -18.569933 -1.125888 6.1898532
-0.9637146 -18.20834 -1.1589216 8.0088215
0.8265397 -18.596592 -1.3875875 4.3364735
1.3636408 -18.626505 -1.3652247 4.9683156
2.4253836 -18.553919 -1.3070093 4.9699636
3.0959923 -18.863634 -1.3300166 5.4814601
5.5816231 -18.296818 -1.4024538 5.5457726
6.24371 -18.552473 -1.4249649 6.5427694
7.6328039 -18.976816 -1.2641346 5.552228
9.3220873 -18.5348 -1.8628775 0.52262461
11.539351 -18.232262 -1.535859 4.0936365
12.48817 -18.374805 -1.3491553 4.1205831
13.229573 -18.466972 -1.600736 0.50846994
14.58413 -18.491785 -1.6249704 0.52263385
15.42434 -18.50181 -1.4900925 0.50724512
16.554501 -18.539238 -1.463841 0.49848455
17.184103 -18.466433 -1.3065917 1.0064625
18.772686 -18.389622 -1.4366441 0.48774901
19.074945 -18.930733 -1.3985492 0.4886364
20.876842 -18.60461 -1.0965631 0.50926626
21.438168 -18.585468 -1.2034528 1.569536
22.360811 -18.543795 -1.240631 3.1082337
23.833107 -18.535711 -1.3082285 0.49702987
24.344013 -18.697708 -1.2594349 0.50219798
25.765762 -18.502609 -1.2397947 2.4177074
26.480957 -18.533144 -1.2300303 3.4614894
27.316076 -18.66083 -1.2821957 2.0953958
28.579697 -18.510315 -1.2093902 3.2682278
29.558247 -18.531057 -1.0866406 4.4897146
30.463285 -18.579943 -1.0816137 4.1572485
31.441578 -18.51165 -1.1327281 2.3199022
32.648327 -18.084463 -1.0029894 4.3345332
33.700474 -18.229424 -1.0094769 0.48773354
34.369354 -18.263252 -1.0083532 0.48081604
37.79932 -18.234827 -1.0060529 2.5304458
-55.225044 -17.403252 -1.6604044 4.8723984
-43.740494 -17.045383 -1.1258783 0.4523626
-37.058395 -17.815763 -1.0741982 0.49931693
-26.68708 -17.903667 -1.9998964 0.48092106
-24.411312 -17.483576 -1.8803881 0.47905713
-23.694715 -17.750086 -1.9277878 0.48096728
-22.331259 -17.60895 -1.9393047 0.49663243
-21.364813 -17.507944 -1.8573872 0.49880403
-19.551458 -17.543541 -1.1593889 0.65143871
-18.860954 -17.55739 -1.1320752 0.58036369
-17.521421 -17.673433 -1.6925499 0.58670485
-16.85881 -17.061373 -1.2518274 0.60916668
-9.8072729 -17.935705 -1.0693903 4.8462963
-8.2898636 -17.334938 -1.0901737 6.1470385
-7.5237489 -17.386791 -1.1216533 7.3840752
-1.8242304 -17.577124 -1.1576656 5.2226896
0.88705516 -17.613235 -1.3695128 5.1366887
5.3606234 -17.642338 -1.5377989 5.4126968
9.1668892 -17.537188 -1.8969594 0.46596158
10.893963 -17.324951 -1.5638086 3.521137
11.201934 -17.474127 -1.5596985 3.9664123
13.632953 -17.487133 -1.6715724 0.48849893
14.557369 -17.473248 -1.7268894 0.47532684
15.529295 -17.485767 -1.5081381 0.49534681
16.277161 -17.674255 -1.5780307 0.48646575
17.196398 -17.478313 -1.3732979 0.50996172
18.782948 -17.68 -1.2822789 0.88577271
20.857935 -17.688169 -1.1078252 0.52941608
21.212273 -17.531933 -1.3512188 0.51360136
22.274418 -17.492882 -1.3485026 0.48977935
23.722662 -17.695192 -1.3630613 0.47543809
24.148676 -17.651096 -1.3687153 0.48153576
25.676027 -17.499598 -1.3291652 0.48655286
26.585051 -17.504295 -1.4816848 0.46107176
27.550684 -17.322184 -1.3157469 0.49354172
28.614197 -17.496126 -1.2115037 3.88662
29.574078 -17.461369 -1.0780793 3.4914815
30.499098 -17.458376 -1.0870415 3.4765718
31.370499 -17.506918 -1.165409 2.3969135
32.58279 -17.488295 -1.0262258 4.654562
33.722916 -17.521238 -1.0265412 0.48748744
34.343121 -17.606295 -1.0623689 0.83331198
35.630993 -17.101528 -1.0412235 2.5321484
39.291996 -17.159178 -1.1110561 3.8778923
-55.448769 -16.462299 -1.4057469 2.0126863
-37.395592 -16.392395 -1.2359009 0.49526411
-36.766338 -16.421101 -1.0960146 0.4987362
-24.825172 -16.802052 -1.9818412 0.4886364
-22.052227 -16.48485 -1.9562809 0.49660328
-21.698158 -16.415955 -1.9216913 0.49522656
-19.683744 -16.48764 -1.1781565 0.72838652
-18.916225 -16.88817 -1.2802619 0.59918678
-17.572567 -16.352282 -1.5250251 0.52753222
-16.528362 -16.499062 -1.2566417 0.61502802
-11.174732 -16.283569 -1.0702543 5.4196362
-10.827039 -16.578613 -1.0858325 5.1141605
-9.1125479 -16.219406 -1.0882567 4.9714046
-8.4736204 -16.402819 -1.1112683 5.996058
-7.6208472 -16.695566 -1.1307676 6.4555345
-1.6558354 -16.712538 -1.1436325 5.8501625
4.7798257 -16.703632 -1.5752989 4.5962944
6.0826507 -16.28924 -1.506526 5.3269176
9.3817673 -16.521057 -1.9048443 0.46033624
10.717669 -16.638494 -1.4645766 4.9992847
11.090104 -16.443142 -1.6503537 2.6760447
13.742211 -16.498339 -1.6871939 0.4773508
14.436287 -16.511761 -1.7625904 0.46859592
15.564912 -16.502928 -1.5373377 0.49292922
16.293768 -16.306229 -1.5680623 0.4852201
17.515999 -16.24625 -1.3937767 1.725705
18.529737 -16.83786 -1.4973381 0.48346564
20.922691 -16.15876 -1.4729389 0.48261747
21.260798 -16.392502 -1.3910911 1.7506256
22.334677 -16.877241 -1.3486787 0.47493488
23.76844 -16.143156 -1.2840436 2.5162859
24.396444 -16.271439 -1.2484334 2.7576616
25.542337 -16.433353 -1.3362482 1.3767501
26.386572 -16.50181 -1.4567175 0.46881676
27.561592 -16.483511 -1.336298 0.48437294
28.66781 -16.493048 -1.2236443 3.8042631
29.662594 -16.50491 -1.1030852 3.4262543
30.562225 -16.399757 -1.1235944 2.8700163
31.510756 -16.417412 -1.142331 3.1298182
32.561104 -16.397247 -1.0352578 4.6813641
33.627472 -16.613909 -1.0288006 2.2291543
34.239544 -16.576473 -1.0443199 1.2516139
35.349243 -16.040421 -1.0007237 2.177449
36.652401 -16.114368 -1.0621941 3.6243908
41.601383 -16.230408 -1.6672438 3.4641814
-55.660767 -15.420378 -1.4645249 2.722867
-40.250336 -15.403378 -1.2436527 0.50986844
-37.395809 -15.498956 -1.1146497 0.53185707
-34.17379 -15.080869 -1.0098733 0.48603725
-33.443893 -15.23172 -1.076112 0.61108088
-32.938408 -15.052961 -1.5640897 0.44791669
-24.201965 -15.913113 -1.9485123 0.48453176
-23.647642 -15.487671 -1.9875661 0.49997604
-22.001888 -15.820291 -1.9709396 0.50206047
-21.599274 -15.65414 -1.9370682 0.48114234
-20.065845 -15.283253 -1.1781666 0.73100001
-19.683533 -15.442003 -1.2321521 0.72547221
-18.341721 -15.232333 -1.5033983 0.58456343
-17.696133 -15.539583 -1.5972027 0.58171344
-16.452166 -15.496484 -1.268621 0.57240444
-12.114357 -15.379448 -1.0490934 4.5107284
-11.720804 -15.738453 -1.0506399 4.6283946
-9.4413176 -15.350291 -1.1023442 5.3275671
-8.6122713 -15.571918 -1.1201472 5.1350203
-7.2224627 -15.138222 -1.1163902 5.069375
-6.931314 -15.217858 -1.0878301 5.025754
0.44910431 -15.125112 -1.6374969 0.45687503
1.5489329 -15.026501 -1.3224783 3.1343303
3.9301169 -15.201889 -1.3498029 2.6381154
4.2528639 -15.102233 -1.3550823 3.5007215
9.5861263 -15.520271 -1.9135748 0.46152827
10.955264 -15.519036 -1.5037568 4.0755296
11.261783 -15.405328 -1.5828301 2.3130977
12.516011 -15.326143 -1.4613404 2.660737
13.693417 -15.417073 -1.5094767 1.6913362
14.426801 -15.249599 -1.4837375 2.4429297
15.526859 -15.414524 -1.5025619 1.4152501
16.276966 -15.51937 -1.503495 1.5657027
17.659092 -15.460385 -1.3966596 2.0169621
18.530998 -15.594745 -1.3427331 2.3710358
19.57575 -15.420114 -1.3794385 2.311156
20.287451 -15.342563 -1.3679833 2.4063337
21.270561 -15.408298 -1.2923703 1.6355401
22.661802 -15.573331 -1.2825664 1.9473637
23.403774 -15.774109 -1.2689621 2.4779835
24.80287 -15.466874 -1.2390968 2.8750327
25.465664 -15.341887 -1.2396355 2.6356454
26.264347 -15.530585 -1.4148945 1.1208206
27.489435 -15.348673 -1.3354536 0.81983149
28.700544 -15.631145 -1.1799077 3.1059356
29.640181 -15.629939 -1.1207381 3.2964263
30.464468 -15.566384 -1.131238 2.7239537
31.407856 -15.578015 -1.0919628 2.8077829
32.60424 -15.651456 -1.042785 3.2626472
33.556931 -15.529118 -1.0957544 0.50432509
34.28857 -15.51723 -1.0906425 0.4804996
35.309517 -15.351855 -1.006642 2.4407527
36.684811 -15.84168 -1.0285685 3.1128693
-55.856056 -14.439184 -1.483701 2.5276833
-40.474751 -14.401505 -1.2007189 0.5566777
-38.166245 -14.67135 -1.1296809 0.46619898
-37.569759 -14.890946 -1.1294332 0.47652009
-33.597176 -14.496405 -1.2110486 0.53772432
-24.154686 -14.124052 -1.9918045 0.454602
-23.588934 -14.582313 -1.9852446 0.51628691
-21.699642 -14.826103 -1.9832363 0.49529019
-20.356663 -14.321495 -1.5653555 0.60344553
-19.625071 -14.456295 -1.2761365 0.73895872
-18.675528 -14.495293 -1.5475757 0.5531854
-17.089224 -14.379147 -1.3962355 0.53077793
-16.553074 -14.447241 -1.3800155 0.51252234
-15.794329 -14.605687 -1.3415918 0.48032367
-13.470835 -14.540032 -1.051344 5.0104208
-11.454531 -14.49178 -1.0570432 4.6585131
-10.233392 -14.588832 -1.1023016 4.9839244
-9.706089 -14.728747 -1.108408 4.974699
-7.6712904 -14.726412 -1.1181213 4.6177807
-1.5776443 -14.665098 -1.7766516 0.44791669
1.8205318 -14.956446 -1.3249364 2.9777055
2.676651 -14.413082 -1.2946947 1.7051411
3.4788949 -14.857235 -1.3087728 2.5493164
4.459342 -14.883222 -1.3443049 3.2022312
5.3857079 -14.595778 -1.3539286 2.3688128
6.4064951 -14.394352 -1.3380733 3.3010328
7.6166778 -14.318889 -1.4105874 2.3262739
8.5670757 -14.408812 -1.3422356 2.1442392
9.5570917 -14.400407 -1.3928338 2.3940685
10.320908 -14.326303 -1.3518291 2.6273212
11.428449 -14.466613 -1.5421108 1.7843757
12.397959 -14.366026 -1.4073069 2.597688
13.884214 -14.612407 -1.5921597 1.5646639
14.61497 -14.69875 -1.4726133 2.4881334
15.521334 -14.558627 -1.5071028 1.5310665
16.085323 -14.327944 -1.5803251 0.51676011
17.428009 -14.66072 -1.3814812 2.0492976
18.033556 -14.568239 -1.3709391 1.5118967
19.586823 -14.538014 -1.4092401 1.8474698
20.289782 -14.389915 -1.4091724 2.0926483
24.810894 -14.407251 -1.2195979 2.6118727
25.404512 -14.434612 -1.2733759 2.6338959
26.376419 -14.501169 -1.5745976 0.46117857
27.496939 -14.66122 -1.2949593 1.3488187
28.669056 -14.733681 -1.1954491 4.3234019
29.499769 -14.504551 -1.1388607 4.5571499
30.541801 -14.606098 -1.1718584 3.0993261
31.435476 -14.561031 -1.1978253 2.6965973
32.355846 -14.547841 -1.0456372 4.2228813
33.536442 -14.265375 -1.0949433 4.4626002
34.518761 -14.457247 -1.0658981 1.9216362
35.613209 -14.357701 -1.0123959 1.9313833
-56.031113 -13.676248 -1.4810466 2.3246114
-55.976906 -13.840372 -1.5064783 2.6977086
-43.56076 -13.345473 -1.25919 0.46776858
-38.223515 -13.525637 -1.1032894 0.52129573
-37.707348 -13.63092 -1.0535011 0.59172505
-33.776897 -13.658542 -1.3031567 0.49126345
-32.477959 -13.627276 -1.3369992 0.48092106
-20.191822 -13.518933 -1.5647087 0.62150043
-19.465935 -13.429122 -1.3486031 0.6792168
-18.648117 -13.562115 -1.3839695 0.62397426
-17.348976 -13.613075 -1.475675 0.50102115
-16.664967 -13.354513 -1.3707423 0.55528623
-14.689379 -13.175505 -1.0322987 5.2237186
-12.189749 -13.717827 -1.05654 4.4482851
-11.955813 -13.956929 -1.0560263 4.6536059
-10.022211 -13.882312 -1.1114547 3.5405936
-9.9579048 -13.94491 -1.111027 4.3297009
-4.0070038 -13.671567 -1.9546714 0.671875
-3.8009872 -13.454451 -1.9492383 1.0266855
2.3237591 -13.588974 -1.2701012 2.3594239
3.985393 -13.257127 -1.4592712 2.5167525
4.6833277 -13.431808 -1.3762114 2.6951871
5.2539434 -13.678051 -1.3423092 2.3670623
9.6471996 -13.606736 -1.5401877 2.5687716
10.526639 -13.581201 -1.4535558 2.6248512
11.276354 -13.493057 -1.4710704 2.4457784
13.87796 -13.552715 -1.7626264 0.49675289
14.331431 -13.478294 -1.6978683 1.3634629
15.584894 -13.601585 -1.4906423 1.1678638
16.179819 -13.390955 -1.5786107 0.53175414
18.322351 -13.470078 -1.2771727 2.2230117
19.661249 -13.685706 -1.3482312 2.6783378
20.338434 -13.530663 -1.378152 1.7807616
23.988155 -13.630627 -1.4102956 0.58592737
24.562115 -13.524035 -1.3032758 1.9915084
25.472605 -13.593342 -1.2856318 2.8535831
26.577629 -13.478314 -1.5448247 0.47391382
27.350149 -13.496926 -1.4419597 0.48302957
28.677158 -13.372431 -1.2886772 2.9652503
29.461479 -13.410008 -1.1509329 4.0449462
30.51263 -13.555117 -1.1404204 3.9697061
31.35173 -13.504869 -1.2635911 1.7399242
32.118073 -13.362747 -1.1251698 5.2844543
33.612244 -13.557417 -1.110539 3.2077048
34.543114 -13.595307 -1.0708878 1.7898178
35.71524 -13.562787 -1.0209022 2.0223944
36.013222 -13.647308 -1.0107632 0.5182206
-43.721008 -12.711689 -1.1675667 0.47505251
-38.666927 -12.987294 -1.0775802 0.48603725
-34.720097 -12.266288 -1.0970024 0.4638325
-33.512917 -12.630463 -1.2554854 0.55246115
-27.315626 -12.232879 -1.1487833 0.47230762
-20.397091 -12.448075 -1.4777848 0.63117963
-19.570898 -12.498564 -1.3868026 0.69350684
-18.07958 -12.47094 -1.3161818 0.6198535
-17.583397 -12.555832 -1.4576606 0.61834568
-16.892454 -12.903044 -1.395216 0.46827656
-15.259162 -12.360435 -1.027373 4.606791
-14.923819 -12.845634 -1.0301044 4.8179145
-6.2986898 -12.427294 -1.2281269 2.2593596
-5.8399816 -12.850281 -1.2412791 2.5896091
-3.6271515 -12.657826 -1.9600954 0.96444666
-1.3694 -12.198387 -1.5730193 0.47591147
-0.087417603 -12.135088 -1.5109484 0.55716467
0.89649963 -12.047276 -1.4642866 0.53750002
1.3284925 -12.790605 -1.1188545 2.5873947
4.2928457 -12.752762 -1.4677291 2.782716
6.9128799 -12.010998 -1.1662984 0.48603725
7.2293091 -12.222002 -1.1453226 0.46858975
9.8595943 -12.26208 -1.5437592 3.2838681
10.590336 -12.573607 -1.5571291 4.3127823
11.919472 -12.481805 -1.8539087 0.50109583
13.841084 -12.466249 -1.7116219 0.54025334
14.145394 -12.50568 -1.855363 0.49130499
15.864983 -12.188011 -1.7355267 0.51462996
16.290234 -12.646187 -1.5901865 0.54920799
17.829468 -12.06872 -1.501869 0.72819567
18.263561 -12.363863 -1.4078088 0.72628224
19.87809 -12.919272 -1.3330294 2.9580667
20.26873 -12.685311 -1.4241357 1.0450599
21.595345 -12.104409 -1.36718 0.62137777
22.7293 -12.081471 -1.2453316 0.8010416
23.885384 -12.327652 -1.4823267 0.57009459
24.202356 -12.511204 -1.4461299 0.56650037
25.52002 -12.655107 -1.4620243 1.4353738
26.601404 -12.331476 -1.346305 0.56539369
27.588675 -12.237174 -1.3004735 0.65952647
28.369785 -12.495648 -1.341831 0.60721022
29.519211 -12.794321 -1.1697346 4.8461313
30.544792 -12.734419 -1.1580551 4.5360866
31.607176 -12.424052 -1.1374066 1.1459994
32.628559 -12.351415 -1.1139263 2.2876232
33.411518 -12.355697 -1.1330545 4.24581
34.391056 -12.568315 -1.1265291 1.5893633
35.930542 -12.801783 -1.0429173 0.58133018
36.146767 -12.675262 -1.0219792 3.2293706
-37.35397 -11.166367 -1.1631538 0.46630824
-34.256489 -11.803256 -1.1080148 0.4824658
-33.29052 -11.953905 -1.1527407 0.51047486
-20.21151 -11.532716 -1.1743141 0.7206766
-19.546816 -11.540218 -1.4365579 0.69567764
-18.348915 -11.514711 -1.4377581 0.54615366
-17.599049 -11.558348 -1.4318643 0.60313392
-16.142508 -11.131633 -1.0258057 5.1685219
-15.741361 -11.643334 -1.0243504 5.173429
-8.8632259 -11.056677 -1.2255222 5.5860243
-7.3429761 -11.208439 -1.224741 2.1707101
-6.5740047 -11.3309 -1.228282 2.0113254
-1.5479488 -11.243973 -1.4437224 0.46650261
-0.082518004 -11.401175 -1.3257983 0.56551921
0.57532507 -11.276036 -1.3909529 0.53390634
1.4937119 -11.149162 -1.3905443 1.9645802
2.3117692 -11.053514 -1.0532103 3.4051578
3.5890582 -11.021713 -1.3631214 4.1099048
4.2340031 -11.968272 -1.4624171 2.7314467
5.8833785 -11.024599 -1.3768213 3.050596
6.7890034 -11.089054 -1.0790062 3.4048669
7.3302894 -11.201476 -1.1521405 1.5767076
9.8543768 -11.540614 -1.4260283 2.5625665
10.366239 -11.21198 -1.5136051 2.5301328
11.771488 -11.270037 -1.1930698 2.836127
12.429066 -11.302718 -1.1905338 1.8410441
13.550338 -11.369421 -1.4666306 4.6277132
14.432439 -11.605081 -1.5995798 2.8935919
15.517112 -11.434401 -1.4628544 4.2858233
16.671911 -11.379074 -1.2052881 2.7753518
17.65304 -11.439494 -1.2243912 2.7512937
18.796333 -11.247689 -1.2212436 3.3582482
19.252398 -11.256133 -1.3663523 5.2405968
20.49832 -11.470922 -1.3026241 2.667381
21.628492 -11.810207 -1.2586709 1.5724338
22.790865 -11.668323 -1.2472079 1.2103876
23.728121 -11.782376 -1.3717729 3.5297034
24.180725 -11.686197 -1.3513994 5.2822714
25.698193 -11.45113 -1.2504332 5.9596014
26.180613 -11.667518 -1.2003156 4.5012631
27.839798 -11.752256 -1.2583567 0.70832771
28.472816 -11.690319 -1.2691735 3.8114345
29.119446 -11.732678 -1.1968845 5.3146033
30.602507 -11.536415 -1.1535351 6.1608434
31.386644 -11.48086 -1.0698299 4.7009788
32.720341 -11.856296 -1.0836794 1.5147907
33.328323 -11.70769 -1.1027205 6.5172906
34.241642 -11.703961 -1.0343082 5.0708532
35.651863 -11.465511 -1.0036805 5.6999879
-37.184021 -10.495049 -1.1637539 0.49631089
-36.773537 -10.725094 -1.1979285 0.52014929
-20.45064 -10.490553 -1.1794512 0.70861411
-19.528454 -10.567526 -1.4895737 0.69071311
-18.398062 -10.571696 -1.5481865 0.55548769
-17.840689 -10.923689 -1.4521065 0.56406474
-16.574284 -10.560724 -1.0302223 5.3700991
-15.770142 -10.115148 -1.0556753 6.1754065
-9.1684513 -10.192995 -1.2044618 2.8377221
-8.3255882 -10.422686 -1.3305846 4.6264696
-7.7219925 -10.658656 -1.2689834 3.912796
-4.2192001 -10.739107 -1.3842335 0.45012316
-3.2900894 -10.593998 -1.0093764 2.5746365
0.64950734 -10.806376 -1.3952326 0.53844613
1.4135567 -10.470381 -1.1658829 3.4730141
2.5657771 -10.671844 -1.233164 1.6234831
3.5815942 -10.981906 -1.3604625 5.1571431
5.4382944 -10.187605 -1.3739678 4.9875574
6.6298971 -10.653489 -1.114019 4.3646665
7.3910074 -10.806793 -1.1520144 1.6295626
8.6682482 -10.852916 -1.3937422 5.3878117
9.3192616 -10.598483 -1.3030176 4.2828321
10.458384 -10.326166 -1.3466669 3.4226959
11.67909 -10.272911 -1.1445631 4.0616612
12.376198 -10.399179 -1.1215893 4.2141476
13.645016 -10.405279 -1.2080426 3.6248863
14.481885 -10.540026 -1.4693292 4.9320726
15.438869 -10.466904 -1.201377 3.7444632
16.668402 -10.388728 -1.200637 4.8100743
17.469276 -10.463521 -1.1724979 5.005477
18.822914 -10.753333 -1.1735724 2.7402136
19.054565 -10.564394 -1.2167785 2.9549067
20.573984 -10.462782 -1.1833699 2.1739824
21.561621 -10.43135 -1.2400882 5.7108283
22.462063 -10.430702 -1.2485437 6.7159243
23.864643 -10.386388 -1.1157367 4.067534
24.271322 -10.40064 -1.1179863 3.5604045
25.50963 -10.451516 -1.2085226 4.4834399
26.531916 -10.695847 -1.1608824 5.9625573
27.647352 -10.671068 -1.1269627 5.8470154
28.651661 -10.370952 -1.0612085 5.6273904
29.97007 -10.458702 -1.1721272 5.6650047
30.371498 -10.279901 -1.0777404 4.8094311
31.439199 -10.907774 -1.0025961 4.9659266
32.518906 -10.60283 -1.2035897 7.2704582
33.396645 -10.679179 -1.0692145 5.5509658
34.464134 -10.292143 -1.0620112 4.180367
35.241287 -10.70298 -1.0284696 5.2470827
36.396416 -10.065772 -1.0473228 3.1572094
-27.205223 -9.1168203 -1.8614457 0.45012316
-26.875971 -9.5692062 -1.0417252 0.47591147
-20.380304 -9.2561836 -1.3385881 0.72883779
-19.539951 -9.5087538 -1.4768522 0.66576302
-18.821815 -9.7048426 -1.7927183 0.55476445
-17.297112 -9.2398262 -1.0259135 6.390635
-16.406303 -9.4298916 -1.0465503 4.5432558
-15.909622 -9.8379078 -1.0548813 4.8373246
-14.89345 -9.2373362 -1.6842284 0.5480417
-13.312515 -9.2259998 -1.1250795 4.4731712
-12.506495 -9.4569273 -1.14854 4.0129628
-11.579625 -9.332428 -1.1568209 4.0638604
-10.08957 -9.1103086 -1.1954356 2.8699176
-9.4173231 -9.6618052 -1.2479055 2.8884542
-8.5760603 -9.6551437 -1.3548454 4.3707595
-7.7895827 -9.7691021 -1.2137704 2.4388797
-4.7378287 -9.3591385 -1.2692254 5.4898906
-2.6730828 -9.0740175 -1.0329019 5.6864405
-1.9246197 -9.2607584 -1.1774483 6.4705505
-0.44231266 -9.2720375 -1.1764034 6.6610899
0.63238895 -9.2879515 -1.174457 5.0948715
1.4774759 -9.6264639 -1.1818652 6.0631232
2.574888 -9.5632401 -1.2235309 6.85186
3.6419301 -9.3073378 -1.1636361 3.7357268
4.9151497 -9.5647202 -1.4925979 5.5487413
5.3751912 -9.3485441 -1.2561578 1.9594032
6.6364126 -9.7966967 -1.2045329 5.6421881
7.4956441 -9.6529436 -1.3117124 6.4007983
8.8712721 -9.4575481 -1.1647445 3.9282467
9.2223625 -9.6410036 -1.1900556 2.9559474
10.653196 -9.4131575 -1.3423628 2.384443
11.568802 -9.9307442 -1.3269349 5.3808942
12.619237 -9.7589159 -1.4786978 7.3035131
13.604058 -9.4567041 -1.3114027 4.2153187
14.360911 -9.3174505 -1.4900961 4.0117712
15.529868 -9.3527021 -1.220175 4.9842348
16.212317 -9.2598772 -1.5145657 3.2773571
18.665899 -9.1218004 -1.1858087 5.1885409
19.224056 -9.359314 -1.1958843 2.2334971
20.649275 -9.5100021 -1.1217316 1.6454022
21.260826 -9.4412632 -1.4310027 3.1498244
23.833555 -9.7094717 -1.2252445 3.2070973
24.175095 -9.4093008 -1.1980892 3.247122
25.665266 -9.5527744 -1.3303393 4.1488786
26.26236 -9.34797 -1.2903385 2.7970543
27.866005 -9.0220337 -1.0589927 7.3090286
28.644623 -9.4546251 -1.1545545 3.2921305
29.33666 -9.4498205 -1.2420195 3.5922582
30.544657 -9.386528 -1.1614798 3.2433262
31.30928 -9.4066591 -1.1511372 2.9925728
32.883087 -9.1827536 -1.8423183 1.6255141
33.472153 -9.4357414 -1.1116279 2.9799752
34.189377 -9.590785 -1.1024169 3.0283375
35.782265 -9.4508495 -1.0613521 2.7554402
36.465569 -9.6198006 -1.0908294 2.2941904
37.254505 -9.5434103 -1.1116254 0.83311892
38.164085 -9.0781336 -1.0299188 8.7211876
42.088455 -9.7928886 -1.1674088 1.5112164
-20.220385 -8.3678751 -1.1701238 0.83318436
-19.743723 -8.4871349 -1.1893343 0.76792687
-17.646618 -8.4898901 -1.0264915 5.546597
-16.822786 -8.6747456 -1.0483334 4.9567547
-15.395962 -8.4132252 -1.3753133 2.5376663
-14.973297 -8.9103813 -1.6882972 0.47841626
-13.473329 -8.9088106 -1.125811 4.2444444
-12.321771 -8.4916897 -1.1482868 3.8853893
-11.572191 -8.5431795 -1.1472639 3.2508311
-10.387497 -8.75457 -1.1810395 2.2244656
-9.4465952 -8.9550533 -1.5463693 4.4966865
-6.0284195 -8.0234051 -1.2757225 5.4968076
-5.4200768 -8.3147097 -1.2193657 3.4185078
-4.9158516 -8.8471594 -1.1299596 0.48603725
-3.3727336 -8.3724947 -1.1957667 4.3186002
-2.3820679 -8.3303881 -1.1250275 5.3754225
-1.9411924 -8.3186693 -1.0974989 6.5972004
-0.10451299 -8.1774502 -1.0653338 8.0217705
