# .PCD v0.7 - Point Cloud Data file format
VERSION 0.7
FIELDS x y z intensity
SIZE 4 4 4 4
TYPE F F F F
COUNT 1 1 1 1
WIDTH 1110
HEIGHT 1
VIEWPOINT 0 0 0 1 0 0 0
POINTS 1110
DATA ascii
34.495129 1.5158732 -1.2762644 4.615592
35.284016 1.6671816 -1.1861935 4.5059981
36.582489 1.5145482 -1.1961906 3.8881805
37.429512 1.5888922 -1.1592956 5.5275078
38.46241 1.6468351 -1.1282883 5.0981822
39.53212 1.6964629 -1.1406407 5.4197826
40.575153 1.7017224 -1.1182127 5.8609753
41.459408 1.598843 -1.119355 6.7862382
42.473667 1.5911696 -1.1008165 7.5444121
43.320377 1.6515054 -1.0570629 6.9049497
44.557415 1.5696856 -1.0801569 6.2096343
45.407307 1.7075334 -1.031178 6.7189622
46.534508 1.5830473 -1.1542839 11.30147
47.342285 1.6702681 -1.1614978 11.36671
48.581402 1.3969591 -1.1487386 12.030552
-55.349934 2.7688582 -1.6806921 2.0441005
-50.409473 2.4217846 -1.6642214 1.0472221
-49.785614 2.7044399 -1.69318 1.0058106
-48.820034 2.7544708 -1.5321023 0.45241627
-27.331287 2.9311972 -1.6096985 0.45687503
-26.692596 2.8783092 -1.5396128 0.50206047
-25.512348 2.7562242 -1.5834746 0.54411811
-24.54669 2.3487017 -1.4075372 0.63997269
-23.344412 2.4652684 -1.37765 0.60513699
-22.521231 2.5201988 -1.317825 0.62882864
-21.450541 2.2844074 -1.541803 0.6251713
-20.38962 2.3711774 -1.6185602 0.59523976
-19.433195 2.4970043 -1.2495712 4.5208864
-18.312311 2.5686252 -1.3441855 3.7271137
-17.615524 2.4045687 -1.3903495 3.3110616
-16.230555 2.4998672 -1.1975164 4.3570142
-15.549232 2.5121436 -1.4112768 3.8362713
-14.382547 2.4375806 -1.3872575 4.9390488
-13.578144 2.6867547 -1.413903 5.2291298
-12.408786 2.5200491 -1.6130878 5.4094396
-11.498263 2.5097747 -1.6798627 1.8937627
-10.407489 2.2998571 -1.6443229 2.0037873
-9.7332058 2.2278247 -1.6663935 2.826591
-8.1035204 2.2239733 -1.6236259 4.9176126
-7.1590896 2.0961328 -1.476212 8.4323931
-6.3485174 2.171845 -1.2676771 2.3537858
-5.5245285 2.1459007 -1.2999197 2.3043923
-4.524797 2.1042488 -1.3350677 3.0906665
-3.503171 2.0739341 -1.3199716 2.7215409
-2.5185575 2.0361183 -1.3004292 2.6843865
-1.7636745 2.186013 -1.2790166 2.2069473
2.9421282 2.2911887 -1.0541093 0.62111038
3.5113707 2.5893042 -1.128533 1.5840297
4.3375649 2.6889877 -1.1765169 5.0297952
5.1493597 2.0084095 -1.195716 7.5721025
6.4327016 2.6324592 -1.2833753 2.315259
7.5036674 2.5063951 -1.2144914 3.6813219
8.0837955 2.780391 -1.3043677 4.9835634
9.6766205 2.2296321 -1.4575169 3.1184893
10.580609 2.4893987 -1.5403625 3.8554773
11.48235 2.5181661 -1.5177331 3.5249467
12.400096 2.6436675 -1.3641335 4.784327
13.426287 2.7268567 -1.3136314 4.8998618
14.500635 2.7737954 -1.2969515 4.4976573
15.477277 2.7832146 -1.2561072 5.033031
16.375486 2.7649884 -1.2736884 5.0639668
17.528875 2.7540812 -1.316421 4.0587101
18.138538 2.6548045 -1.3223648 4.4861479
19.57629 2.5184398 -1.5192239 3.7315133
20.481283 2.4875057 -1.5331455 4.1398735
21.53907 2.4492455 -1.4869738 4.030282
22.448418 2.5875261 -1.2220621 5.2706285
23.242937 2.5430465 -1.2285273 4.4535522
24.511168 2.431957 -1.5144182 3.6458211
25.582949 2.3412848 -1.1825186 6.3339701
26.378124 2.4125078 -1.2452027 6.2356725
27.482925 2.412312 -1.1468747 5.6783032
28.421701 2.5089793 -1.13925 4.3108091
29.437132 2.4144418 -1.1663305 4.0125194
30.46999 2.3967557 -1.1684999 3.6648414
31.351027 2.3892345 -1.1584781 3.7480693
32.478767 2.2814441 -1.1690818 3.4743989
33.377232 2.3560448 -1.1861237 3.2536073
34.477062 2.3880243 -1.1542234 3.3384521
35.390427 2.4546447 -1.1671135 2.5688388
36.712227 2.4730475 -1.1449608 3.6778953
37.448227 2.1450598 -1.067368 3.5871284
38.331085 2.0285938 -1.0692961 3.327668
39.310246 2.0139775 -1.0337745 3.1996725
43.836994 2.05371 -1.070073 6.4979181
44.281937 2.0913184 -1.0439359 6.2599869
45.238487 2.0318012 -1.0189911 6.6028109
-56.253502 3.6097207 -1.6995426 2.6334331
-55.318031 3.5535841 -1.5960752 1.7178535
-47.167534 3.1127005 -1.0763454 0.49391896
-34.710934 3.9571955 -1.3757552 0.51624292
-33.501461 3.9375072 -1.3781912 0.49319315
-32.504692 3.9172611 -1.417215 0.50206047
-31.211693 3.8552392 -1.4662086 0.5740875
-30.360203 3.8788729 -1.433679 0.64083803
-29.295616 3.7961771 -1.4844197 0.50463676
-28.550911 3.4191108 -1.5399956 0.47100517
-27.689672 3.2185521 -1.6056739 0.48913991
-26.530052 3.0663671 -1.5362684 0.51047486
-23.084343 3.2638969 -1.2605917 0.55089682
-22.494959 3.6541765 -1.2165405 0.58443195
-21.88102 3.4939778 -1.384455 0.54732454
-20.275261 3.459003 -1.5896565 0.52070332
-19.315277 3.492768 -1.1766562 4.5981383
-18.347919 3.4262426 -1.3526868 3.8134699
-17.432266 3.4366612 -1.1746089 4.6060333
-16.181984 3.5022507 -1.2039237 4.6198134
-15.540513 3.4403751 -1.4192336 4.8378139
-14.461348 3.5696886 -1.2038392 6.5635185
-13.568226 3.2985668 -1.4200163 5.1989636
-12.549925 3.1245437 -1.5946279 6.828845
-1.8914235 3.4177158 -1.0982435 0.62538958
2.9022982 3.5163026 -1.1811039 0.60197878
3.3279538 3.6203353 -1.1370622 2.878885
4.3901 3.2602832 -1.2251552 4.500185
5.7583008 3.4607399 -1.2720337 5.2914524
6.5852823 3.3281496 -1.1567138 2.8396595
7.6508551 3.2817926 -1.240376 3.6147146
8.1303272 3.5751386 -1.2939835 5.3532848
9.6689968 3.6842811 -1.5552014 3.1934886
10.612796 3.6459708 -1.5917232 2.9908042
11.476381 3.6464515 -1.5771563 2.9838006
12.511167 3.2812343 -1.2395513 4.7174053
13.382564 3.2089374 -1.2646848 5.4001689
14.288465 3.2586768 -1.491985 3.4040749
15.56045 3.1600137 -1.4596491 3.0939507
16.486647 3.1987643 -1.3026068 5.7883735
17.259193 3.2887058 -1.2932117 4.3713813
18.27066 3.4539676 -1.3116724 4.7736788
19.582268 3.5413015 -1.5647802 3.7461932
20.545723 3.4546938 -1.5762359 3.6902287
21.487263 3.6421633 -1.4229326 3.8997285
22.322289 3.4446607 -1.2880265 5.6129279
23.416222 3.5776722 -1.2196763 4.4884977
24.510702 3.7842646 -1.250186 4.1047854
25.622597 3.421818 -1.2362685 3.1900291
26.359116 3.3372345 -1.2701712 3.2849014
27.32374 3.2421181 -1.1930406 6.3043332
28.487303 3.4641349 -1.1587542 3.8113945
29.439873 3.4390495 -1.1637812 3.5218432
30.377552 3.4490788 -1.1736056 2.8356342
31.37067 3.4372332 -1.1450182 3.4431908
32.315796 3.3008404 -1.0724137 3.1385303
33.575829 3.389523 -1.1417574 3.3706632
34.566254 3.3574462 -1.157631 2.8340466
35.357803 3.3923821 -1.1569213 2.8271618
36.457565 3.403722 -1.1173639 3.7127409
37.16045 3.3700659 -1.1075912 3.2646809
-68.357437 4.673831 -1.551511 9.5330935
-67.242798 4.7283888 -1.0382913 4.1011539
-55.279236 4.5598216 -1.6244648 1.9432374
-36.340797 4.3878956 -1.2590775 0.59237158
-35.219616 4.2869091 -1.3290439 0.59799826
-34.636414 4.2536483 -1.375916 0.62328029
-33.474419 4.2361975 -1.3792945 0.57360113
-32.455414 4.2134075 -1.4178355 0.65644318
-31.432747 4.1382341 -1.4441121 0.5515185
-30.62928 4.2070847 -1.442695 0.51624292
-29.801754 4.085444 -1.4501061 0.51053858
-23.027189 4.9214964 -1.2469201 0.57853138
-22.411572 4.5264325 -1.1818638 0.5910874
-21.841099 4.2273216 -1.3872942 0.53619421
-20.358341 4.0876513 -1.4003952 0.56287193
-19.257189 4.5075469 -1.0373996 6.2117343
-18.256174 4.2860794 -1.100589 5.3394198
-17.425753 4.3980155 -1.1507649 4.825356
-16.547266 4.4396992 -1.200753 5.2506037
-15.462048 4.09828 -1.3306684 4.5061417
-14.2313 4.1190343 -1.032743 4.1116371
3.2409742 4.4067578 -1.2302252 4.1644831
4.3824849 4.6352553 -1.3093673 4.3504887
5.4148641 4.6968012 -1.1878102 4.8936453
6.3613391 4.4974275 -1.282972 3.3470902
7.2005911 4.2741733 -1.3349364 2.6333101
8.3192425 4.3018527 -1.3271803 5.266511
9.5292797 4.4729338 -1.3680911 4.9295936
10.475424 4.4376841 -1.3566226 5.112463
11.413218 4.3723998 -1.3757198 4.8868074
12.247146 4.258348 -1.3165344 5.5731082
13.498057 4.2308693 -1.3170632 3.4714174
14.271726 4.2265978 -1.4802926 3.5984972
15.99803 4.1242728 -1.600319 4.4858127
16.480261 4.2404947 -1.354573 4.1544733
17.210056 4.1766577 -1.2010653 4.3338704
18.563004 4.1450629 -1.2899673 4.6687894
19.524147 4.1086788 -1.3148664 4.8248615
20.49666 4.0680823 -1.2938607 5.0864596
21.328367 4.0337949 -1.271243 5.3140788
22.15741 4.019526 -1.2657889 4.9084954
23.455202 4.0607905 -1.2454437 2.8123388
25.117149 4.0204744 -1.0257313 1.503114
-67.359871 5.6356783 -1.1101084 4.6576324
-56.521053 5.2296376 -1.612385 2.1453693
-55.244812 5.3088064 -1.5930716 1.7547839
-22.184591 5.0892224 -1.0559269 0.63627881
-19.340384 5.4988904 -1.05461 6.2879052
-18.341047 5.2174931 -1.0905824 4.5169792
-17.802565 5.1234632 -1.1129884 4.5448575
-55.185661 6.5881271 -1.0416365 0.4564783
-52.61525 6.1606646 -1.7861372 1.4633756
-19.547291 6.2992902 -1.0743906 6.7846923
-65.571404 7.5705314 -1.0319204 2.9394891
-56.448643 7.3828859 -1.2597578 0.44791669
-55.186111 7.1824698 -1.0437959 0.44791669
-93.392227 8.6880655 -1.8084016 37.033226
23.695597 12.382331 -1.7686707 2.7999737
39.13504 16.138794 -1.9064555 4.2313423
-24.696278 -94.87767 -0.063717008 35.411064
-20.926476 -75.259697 -0.50458813 15.444713
-20.991478 -74.66124 -0.52315032 14.975094
-21.211592 -70.484581 -0.27566278 9.2860069
-20.994041 -70.386414 -0.37345374 9.6497231
-21.032276 -69.423859 -0.37251228 8.7341022
-20.981968 -69.686356 -0.14705694 6.0475469
-36.460838 -68.284149 -0.82774472 24.001371
-21.051947 -68.583366 -0.42783284 8.3339682
-20.973503 -68.620819 -0.19282955 5.3120217
-55.472172 -67.045593 -0.39981294 18.976494
-49.538933 -67.202301 -0.56687748 18.014507
-46.719574 -67.364868 -0.36855346 15.581944
-23.48888 -67.033188 -0.7098878 11.392624
-21.940193 -67.164268 -0.42718253 6.8597002
-60.158554 -66.289062 -0.8822192 27.342291
-59.595284 -66.708054 -0.80389071 26.484016
-58.127808 -66.875206 -0.7513662 24.940941
-57.298138 -66.930031 -0.034226418 16.67037
-54.369358 -66.519035 -0.38808417 17.706339
-53.809959 -66.661545 -0.37515032 17.757336
-57.546528 -64.71431 -0.8084327 23.409277
-5.5911016 -44.260475 -0.54976571 0.49225044
-3.6306603 -44.150158 -0.2911818 0.46425089
1.4656563 -44.501137 -0.2355144 0.46503985
-34.187317 -43.414955 -0.79011208 0.60743392
-33.924774 -43.091236 -0.89287442 1.0877976
-26.07995 -43.250877 -0.24737078 0.46808022
-21.564154 -43.332756 -0.34985501 0.54189599
-34.036831 -42.94426 -0.67826289 0.87757713
-33.96801 -42.914299 -0.80924094 1.1663313
19.537563 -38.063705 -0.59981936 0.69751906
24.53916 -38.19286 -0.51994634 0.69986683
37.424519 -38.770771 -0.044703826 0.61931574
-8.2363167 -37.081669 -0.73225772 0.44791669
-6.8770714 -37.014793 -0.72334611 0.44791669
-5.4482889 -37.077106 -0.12506901 0.60214239
-4.4568253 -37.055347 -0.22892095 0.59133559
-3.8144 -37.120304 -0.36762932 0.55551773
-2.5082798 -37.26033 -0.31725627 0.4523626
0.62784195 -37.427132 -0.34989429 0.5560928
1.7199126 -37.434807 -0.38584197 0.57467037
2.5225048 -37.522236 -0.29708099 0.47038582
3.5454233 -37.543095 -0.2372985 0.45633441
4.3089008 -37.554935 -0.15646125 0.45354846
5.7148895 -37.485359 -0.3111079 0.5955134
6.5771122 -37.513737 -0.27104518 0.62970394
7.4828629 -37.578583 -0.2169756 0.59387958
8.4217119 -37.690804 -0.10204184 0.4529621
9.2901745 -37.721912 -0.071076728 0.45722991
10.302096 -37.575573 -0.45041093 0.60081881
-26.090998 -36.135048 -0.74191993 0.6003418
-25.708191 -36.382404 -0.71359682 0.53681493
-24.843781 -36.399986 -0.72704589 0.44791669
-23.302082 -36.373192 -0.095983684 0.45235151
-21.174601 -36.196533 -0.41962013 0.57018691
-20.7759 -36.361057 -0.39265206 0.54269171
-19.634638 -36.52914 -0.37393484 0.44791666
-18.469883 -36.570789 -0.22653076 0.45100063
-17.524706 -36.518227 -0.28521299 0.55445594
-16.502398 -36.620422 -0.42648029 0.51583022
-15.598338 -36.633995 -0.31778839 0.52126199
-14.602194 -36.704697 -0.42406625 0.44791669
-13.910675 -36.715824 -0.19562055 0.44791669
-8.1612244 -36.982567 -0.7740649 0.44791669
-7.4681854 -36.994568 -0.74855798 0.44791669
-6.1685638 -36.858379 -0.69792402 0.45917088
-5.8582363 -36.951172 -0.45474255 0.48933381
-4.0020905 -36.994362 -0.5288021 0.60115135
25.700195 -36.367329 -0.44965059 0.53327048
26.198799 -36.537998 -0.43127775 0.53436893
-26.216288 -35.600391 -0.78464556 0.53936923
-22.097 -35.483223 -0.26222801 0.45014513
-21.212881 -35.604218 -0.45558101 0.60365921
-20.470655 -35.173344 -0.24234283 0.47100517
-19.446503 -35.050499 -0.57961243 0.48603725
-17.778511 -35.497917 -0.22058687 0.45705783
-3.5992136 -35.30061 -0.62025762 0.5356828
4.3746214 -35.437389 -0.26917478 0.52116567
-26.036243 -34.70858 -0.82147563 0.59113467
-20.349545 -34.992992 -0.60282117 0.45687503
-19.589579 -34.472511 -0.59299421 0.46056417
-18.628048 -34.840996 -0.3789385 0.51294494
-17.578148 -34.871597 -0.21200806 0.50761259
-16.474052 -34.832924 -0.17738283 0.47770447
-15.757772 -34.500324 -0.17017658 0.53131342
-9.4659414 -34.082733 -0.41756812 0.52934903
-8.609149 -34.1115 -0.46262252 0.54687798
-7.4066534 -34.149281 -0.7825619 0.47123218
-6.4307723 -34.214382 -0.77864581 0.5114308
-5.3452902 -34.294964 -0.71339929 0.48386323
-4.376852 -34.312706 -0.48832488 0.54432684
-3.7388105 -34.52351 -0.40005833 0.58477485
4.5590324 -34.55899 -0.27584645 0.51247162
5.2009773 -34.556404 -0.32274109 0.47591147
9.4159956 -34.417812 -0.11543191 0.53020263
10.241945 -34.124695 -0.57623231 0.45917088
13.270692 -34.434071 -0.03161037 0.4523626
24.785229 -34.220512 -0.49219936 0.67014229
-26.059578 -33.631474 -0.90027493 0.62185526
-19.861137 -33.984913 -0.60794324 0.5710938
-14.110126 -33.630592 -0.48026472 0.55761045
-13.714412 -33.651703 -0.58546174 0.55219281
-9.2693119 -33.06628 -0.21374451 0.61005294
-8.5225306 -33.083221 -0.20614031 0.60885078
-7.6548867 -33.102638 -0.15052852 0.66196001
-6.6746731 -33.166561 -0.31351683 0.60225064
-5.2868528 -33.061848 -0.57326084 0.54198408
-4.5963483 -33.125713 -0.56580371 0.51187634
-3.657064 -33.435825 -0.45397353 0.5849182
4.8443475 -33.342876 -0.28391573 0.53297496
5.0521317 -33.694862 -0.35082275 0.48346564
8.4243956 -33.589607 -0.09948729 0.4742918
9.5032597 -33.751015 -0.071255855 0.51959509
10.244583 -33.525223 -0.56650758 0.46858975
24.772423 -33.408611 -0.49444798 0.55855399
25.66531 -33.136433 -0.41920424 0.49391896
35.925163 -33.239441 -0.0030277371 0.44791669
37.25526 -33.129971 -0.0029209703 0.5324018
-9.3927155 -32.975761 -0.24862288 0.66598153
-8.4063263 -32.983753 -0.13292111 0.67907876
-7.8570595 -32.969681 -0.035876736 0.90395349
-5.1692057 -32.237808 -0.99676543 0.60795486
-4.7450294 -32.311287 -0.94883722 0.65859383
-3.6406555 -32.960472 -0.69773793 0.49126345
-2.1835039 -32.055283 -0.60987252 0.98221409
3.8477521 -32.128216 -0.22473647 0.54328632
4.6540484 -32.450756 -0.31459227 0.61972034
8.5914478 -32.142933 -0.66518307 0.54768354
9.3315153 -32.116753 -0.61894304 0.61246037
10.344667 -32.378357 -0.54744482 0.55643398
19.269621 -32.076229 -0.55972934 0.99320656
21.519674 -32.121742 -0.47650176 0.9601565
22.020752 -32.453785 -0.44479409 1.2869718
24.574007 -32.620163 -0.50668967 0.55607343
25.620985 -32.68079 -0.41160384 0.53557897
26.475994 -32.487793 -0.34614956 2.5730147
31.018064 -32.73394 -0.29893443 0.49931693
-25.895775 -31.155313 -0.2073977 0.53750002
-3.8990507 -31.012955 -0.91290164 0.55378789
-2.711128 -31.339197 -0.60266352 1.7590468
3.8039443 -31.807575 -0.3731924 0.48127094
4.5969744 -31.81156 -0.34307227 0.59294945
8.9753256 -31.984039 -0.60980809 0.56754661
10.787216 -31.765417 -0.55492425 0.58710271
11.339343 -31.788919 -0.5772475 0.50189787
19.185389 -31.988876 -0.56201524 1.4503969
-35.225048 -30.022026 -0.21366942 0.53519797
-34.343925 -30.034449 -0.28449675 0.57564288
-33.469677 -30.06077 -0.29084069 0.62168324
-32.510975 -30.132618 -0.20487258 0.58588487
-31.532917 -30.167919 -0.17653771 0.59816062
-30.580488 -30.205595 -0.12334991 0.57770735
-29.561129 -30.249559 -0.02924969 0.56586248
-28.468134 -30.233053 -0.12976207 0.4987596
-26.152378 -30.282711 -0.26651898 0.55835783
-25.920153 -30.7472 -0.2352417 0.61950576
-4.0989017 -30.94298 -0.91672885 0.67685193
-3.4854476 -30.748571 -0.89240468 0.64096451
-2.8187056 -30.902645 -0.62086946 0.78462005
27.826471 -30.3351 -0.38169616 2.2960539
-44.526733 -29.648554 -0.15065531 0.55496055
-43.618752 -29.65633 -0.25940949 0.51047486
-42.794495 -29.662874 -0.18116522 0.63230801
-41.815582 -29.776917 -0.019609198 0.64804965
-38.347908 -29.497482 -0.21747422 0.48440424
-37.596016 -29.449389 -0.073816665 0.45069671
-36.343811 -29.823769 -0.36775321 0.45463544
-35.556129 -29.608917 -0.25100142 0.5483703
-34.451591 -29.900198 -0.25470901 0.56691647
-33.357582 -29.900946 -0.31039301 0.63614696
-32.382568 -29.748137 -0.15607451 0.5902459
-31.754488 -29.755903 -0.15115157 0.681903
-28.009186 -29.844152 -0.0027781427 0.57832283
-42.881706 -28.207224 -0.22498392 0.64427453
-41.342758 -28.079317 -0.26058608 0.46619898
-38.403191 -28.555197 -0.19244535 0.6301527
-34.618622 -28.336756 -0.20258293 0.50434172
44.690521 -28.65317 -0.43232533 4.2480197
48.184723 -28.445526 -0.13611525 4.5569634
49.900227 -28.032814 -0.0058243671 5.0231814
-42.856075 -27.416395 -0.43744037 0.6288442
-24.78104 -27.110094 -0.022486061 0.55378789
-20.190363 -27.146906 -0.6057685 0.61739868
13.383785 -27.06447 -0.15983182 0.454602
25.842312 -27.440918 -0.38084215 0.63638365
27.097361 -27.201363 -0.22036314 0.56076169
42.175285 -27.440279 -0.53897673 7.2999582
44.790565 -27.91861 -0.45730257 2.6508451
45.317936 -27.034296 -0.19155538 6.5660706
47.79015 -27.071457 -0.12680689 2.835887
48.275917 -27.173241 -0.15715671 4.7897978
50.733006 -27.060812 -0.043587975 5.1960583
51.199902 -27.504402 -0.098609872 5.5036387
52.456188 -27.011719 -0.059203506 1.2136744
-42.821697 -26.541426 -0.39466888 0.65897119
-37.927055 -26.650391 -0.14533626 0.49652222
-31.264938 -26.902069 -0.21252973 0.51102525
-20.164488 -26.319748 -0.62622803 0.62263268
-3.1512234 -26.414232 -0.33173472 0.49162251
-2.4535098 -26.508684 -0.84231693 0.55576521
3.4377036 -26.361553 -0.39156193 0.61680031
5.687603 -26.873302 -0.24454421 0.46619898
6.7858901 -26.881815 -0.3405472 0.4519394
7.7917104 -26.861858 -0.29085875 0.46293908
8.6609249 -26.359484 -0.33508494 0.56901133
9.5722704 -26.10293 -0.47159973 0.75351089
12.988055 -26.187084 -0.16800529 0.49418527
13.168233 -26.481985 -0.14728434 0.50102979
16.789162 -26.356693 -0.25886577 0.57346672
17.033998 -26.565016 -0.025639841 0.46644244
18.434448 -26.199268 -0.45203277 0.91820991
25.897278 -26.510721 -0.40035623 0.83032691
27.643467 -26.347563 -0.22369646 0.64197844
28.288897 -26.265249 -0.19264491 0.60480976
29.672113 -26.299742 -0.20416629 1.0376184
30.44257 -26.434994 -0.15183084 0.82157916
31.083441 -26.499548 -0.11653341 0.55384171
32.751251 -26.336138 -0.08586666 0.87976718
33.108345 -26.082697 -0.065451548 0.60513246
34.861248 -26.1518 -0.045638196 1.2043746
35.193512 -26.162617 -0.026716651 1.2360808
38.669048 -26.515514 -0.71838897 6.096921
42.427097 -26.091358 -0.44686279 5.7178516
44.848484 -26.699257 -0.150498 8.0859919
45.279373 -26.703321 -0.25689599 6.7927423
46.52866 -26.294361 -0.41625547 8.0392599
47.786533 -26.657507 -0.17992 5.6988602
48.183777 -26.717297 -0.19498152 5.6009736
49.381947 -26.239544 -0.30911845 8.5875721
50.905834 -26.455372 -0.17936656 3.1538358
51.11874 -26.617889 -0.16454557 3.9689598
54.270973 -26.673866 -0.10886995 4.3835211
-53.569214 -25.533495 -0.48499566 0.50677967
-45.249466 -25.575222 -0.37011176 0.53129512
-44.694122 -25.827328 -0.33711228 0.5439558
-43.421059 -25.952602 -0.43892947 0.61418331
-42.895409 -25.983631 -0.49458066 0.61791968
-33.765697 -25.21628 -0.13499653 0.52478641
-20.138819 -25.666002 -0.65438384 0.62682706
-19.705418 -25.471199 -0.60989857 0.57527554
-5.2696609 -25.229277 -0.62454212 0.78899634
-4.4398355 -25.292812 -0.46441409 0.58433455
-3.4999352 -25.343142 -0.42205992 0.57595658
-2.6477556 -25.357918 -0.50653887 0.75289518
-0.39402798 -25.164125 -0.62193328 0.77681643
0.66561431 -25.172558 -0.39966622 0.69340062
1.4912871 -25.131281 -0.54510862 0.90457416
2.6731899 -25.283848 -0.45741996 0.71599728
3.244523 -25.455034 -0.52043909 0.5884856
5.8240709 -25.381493 -0.54672199 0.64348274
6.653141 -25.443497 -0.33734673 0.53899437
7.5538735 -25.389824 -0.60215664 0.94811821
8.4247589 -25.556271 -0.47811812 0.57493889
9.7590523 -25.499754 -0.48713744 0.78219068
10.439184 -25.186848 -0.4644126 1.0952744
11.270147 -25.210226 -0.47370368 1.0222619
12.775202 -25.690083 -0.19002101 0.53847492
13.213026 -25.712093 -0.19074541 0.61646914
18.58419 -25.094795 -0.025358398 0.53631186
19.583107 -25.023668 -0.2000782 0.54129958
20.459606 -25.024229 -0.41692972 0.78374475
21.568916 -25.104706 -0.39187062 0.96453029
22.302649 -25.303143 -0.36515006 1.1232103
23.401407 -25.331053 -0.31626293 1.0455505
24.629545 -25.803976 -0.29114005 0.94633406
25.244095 -25.4431 -0.33186802 0.92206043
26.2906 -25.315863 -0.36543855 0.74220699
32.797127 -25.828587 -0.92195189 7.5170722
33.067444 -25.888439 -0.91317213 7.038785
34.461739 -25.332867 -0.92966223 8.484951
36.217701 -25.367996 -0.3818391 2.1932044
37.493164 -25.514492 -0.93894219 9.3808117
38.850349 -25.205322 -0.69460833 5.6436353
39.554401 -25.224754 -0.67261785 6.6133308
40.387165 -25.206619 -0.64996111 7.081852
41.530724 -25.008532 -0.58471131 8.516942
42.542439 -25.365393 -0.45889404 5.4512787
44.719666 -25.404682 -0.48594967 3.3035512
45.221886 -25.290863 -0.31019437 2.5550635
46.450924 -25.202087 -0.35825634 7.3269863
47.649834 -25.383232 -0.2365998 5.3642201
48.363575 -25.213026 -0.24382927 4.7142782
49.742664 -25.369345 -0.11384089 4.4192109
50.777332 -25.410444 -0.11110014 3.823343
51.074883 -25.406349 -0.13097695 4.0707283
53.827148 -25.421225 -0.11319596 5.0329394
54.336941 -25.427694 -0.077174656 6.6454453
55.123985 -25.634876 -0.11873561 8.8117762
56.330967 -25.315994 -0.079007782 8.5616035
57.580334 -25.30261 -0.035604611 4.9564342
-53.815941 -24.442417 -0.38671115 0.55056965
-49.684792 -24.745838 -0.52573156 0.48246413
-48.396244 -24.812153 -0.46921986 0.48583499
-46.343361 -24.332096 -0.49846071 0.49217811
-45.359028 -24.615797 -0.46836263 0.54965526
-44.711014 -24.812733 -0.13921484 0.50472504
-41.193439 -24.839201 -0.40816656 0.61642551
-35.372921 -24.124714 -0.19576299 0.5165965
-34.43219 -24.381443 -0.16027489 0.54812908
-33.847427 -24.482422 -0.18926966 0.53422141
-20.227034 -24.499901 -0.62986237 0.69874448
2.8618348 -24.10813 -0.51254427 0.81786847
3.5685878 -24.363544 -0.62796587 0.71026814
4.1202531 -24.214643 -0.50100935 0.80214185
10.985899 -24.593822 -0.46631277 1.0625001
11.650497 -24.638775 -0.42646983 1.1058286
12.764664 -24.153803 -0.24259122 0.56155914
13.626692 -24.143297 -0.37791941 0.84069276
14.632706 -24.110498 -0.36035067 0.78611147
15.680744 -24.233086 -0.3743993 0.91620225
16.536442 -24.333969 -0.39368415 0.83212298
17.555836 -24.584547 -0.40144792 0.87248474
18.198229 -24.459318 -0.39558524 0.75930625
19.472548 -24.832638 -0.40151176 0.83524925
20.319901 -24.348066 -0.4148598 0.71347928
21.468239 -24.49828 -0.42261708 0.75257301
22.683462 -24.453154 -0.36482391 0.71402836
23.744226 -24.542902 -0.34440345 0.73289263
24.854101 -24.6511 -0.28284392 0.7929213
25.149755 -24.340977 -0.31340596 0.71415216
26.201046 -24.434984 -0.32506758 0.74898922
27.971878 -24.038696 -0.33002216 0.4501341
28.188946 -24.667843 -0.31368482 0.48603725
29.851913 -24.019363 -0.94332612 6.8497462
30.664288 -24.176205 -0.59672678 4.1033931
31.513721 -24.216867 -0.90281832 6.9777961
32.563496 -24.279419 -0.88789058 6.9780107
33.501461 -24.393808 -0.67464322 5.1503563
34.40044 -24.466761 -0.84013218 7.2461529
35.589966 -24.484142 -0.8252697 6.7494097
36.546036 -24.363367 -0.80814189 7.139977
37.337742 -24.343485 -0.77281058 7.3491087
38.565289 -24.2346 -0.75839925 5.4956956
39.693218 -24.234196 -0.5983547 5.3739491
40.515133 -24.540705 -0.65821195 6.9633665
41.350269 -24.511858 -0.66524899 8.4998283
42.529301 -24.453045 -0.4046185 4.4653792
43.367142 -24.551392 -0.47925603 6.1738024
44.710873 -24.58185 -0.44957909 5.4406419
45.377716 -24.691374 -0.34426412 4.5126524
46.599461 -24.320749 -0.35429275 5.5401421
47.539425 -24.441107 -0.30047759 4.4655833
48.419365 -24.555859 -0.25672424 4.7967553
49.640228 -24.35848 -0.26181945 5.490859
50.514912 -24.38866 -0.21029815 5.1586041
51.350731 -24.413834 -0.20756479 5.2455397
52.41909 -24.338804 -0.17683977 5.8808837
53.588631 -24.28648 -0.11295501 4.741828
54.298866 -24.245441 -0.11145176 4.8998542
55.424255 -24.141769 -0.10233638 4.9009595
58.569931 -24.710327 -0.013158411 6.0143237
-54.112396 -23.204998 -0.069250599 0.4748323
-53.825264 -23.767405 -0.522663 0.4864881
-50.162178 -23.445847 -0.49414322 0.62285954
-44.426567 -23.079552 -0.23454124 0.46561342
-35.247341 -23.793455 -0.25020513 0.45927525
-34.38308 -23.534418 -0.18127441 0.50303239
-33.847034 -23.274975 -0.21598956 0.48351979
-31.201345 -23.573715 -0.15805981 0.54104841
-24.58041 -23.848677 -0.29077223 0.52976882
-20.495266 -23.594418 -0.57055682 0.67456686
-18.580509 -23.485638 -0.79335719 0.4836826
2.7652175 -23.358709 -0.63141328 0.70752716
3.5336351 -23.393682 -0.62428814 0.71360105
4.5195003 -23.304258 -0.5367431 0.794438
5.671946 -23.232113 -0.54961377 0.89342701
9.8443794 -23.392382 -0.54044956 0.90335506
10.494498 -23.588966 -0.47905847 1.0107777
11.399808 -23.35433 -0.4838264 0.81568676
12.417942 -23.67288 -0.39380887 0.57846618
13.228497 -23.19396 -0.34910449 0.60472018
14.497745 -23.982271 -0.21382086 0.614254
15.182808 -23.990788 -0.18055201 0.60916668
17.965288 -23.387184 -0.43644643 0.65998805
18.32156 -23.548744 -0.43418476 0.6352725
19.564981 -23.307644 -0.39862081 0.66224599
20.510229 -23.45756 -0.44334647 0.67751032
21.730089 -23.371597 -0.37576491 0.68474299
22.611031 -23.322231 -0.3689281 0.70030004
23.770885 -23.468704 -0.38913894 0.70917606
24.539103 -23.215551 -0.39617899 0.69833684
25.269295 -23.442244 -0.3324292 0.70511729
26.25441 -23.509705 -0.30395409 0.76686013
27.78441 -23.598698 -0.99046338 6.5279436
28.472492 -23.766031 -0.67551088 4.0088181
29.53231 -23.598488 -0.94071943 6.0687165
30.641876 -23.537066 -0.72711909 4.8378487
31.49267 -23.565674 -0.902408 6.209631
32.423893 -23.697159 -0.8742618 6.1519804
33.206379 -23.58502 -0.52663583 4.5448456
34.623981 -23.394068 -0.71684474 5.6579113
35.44664 -23.471104 -0.68516272 5.4542933
36.34927 -23.628576 -0.74691743 6.5389023
37.621929 -23.423143 -0.67648071 4.3512864
38.423576 -23.598808 -0.68182075 4.6103721
39.723698 -23.473951 -0.48856652 4.8049469
40.541828 -23.497572 -0.63133758 4.8590569
41.368614 -23.524761 -0.62736303 4.3725815
42.678028 -23.414436 -0.28593588 3.4724095
43.594448 -23.288666 -0.50516605 5.3591137
44.451691 -23.486385 -0.4997049 4.6441965
45.367931 -23.479761 -0.38393697 3.8466573
46.497494 -23.649054 -0.42323533 4.3130646
47.485935 -23.534119 -0.32279956 3.3999939
48.49427 -23.355659 -0.19782385 3.6236486
49.394249 -23.248335 -0.22895713 3.5741043
50.585091 -23.365553 -0.14515084 3.4584448
51.562077 -23.410267 -0.17436776 4.7847772
52.503464 -23.522692 -0.10080372 4.2647343
53.58046 -23.518044 -0.09247458 4.8037362
54.4272 -23.668102 -0.10232691 5.7870007
55.329594 -23.642008 -0.15073062 3.7040985
56.457359 -23.552046 -0.086876594 4.9537287
57.514519 -23.309925 -0.02829414 5.9067907
114.4641 -23.49593 -0.58830774 23.484665
117.52406 -23.426289 -0.60023355 26.991098
120.59052 -23.720505 -0.650837 31.468952
-54.249352 -22.156387 -0.61968839 0.48368227
-50.525169 -22.725996 -0.2879332 0.45449567
-36.519043 -22.012625 -0.29294443 0.45917088
-33.705418 -22.330029 -0.21624687 0.57070911
-27.727362 -22.159752 -0.051661141 0.63424075
-21.119961 -22.254698 -0.2437537 0.58194727
-20.530149 -22.45228 -0.48300415 0.73212177
-18.786427 -22.152197 -0.50283545 0.7614584
-17.18642 -22.351109 -0.72692883 0.48960882
-16.987698 -22.564653 -0.72559541 0.51917619
-5.0417638 -22.118347 -0.37933457 0.45964718
-4.9277534 -22.245245 -0.40979695 0.52223003
2.683295 -22.651577 -0.57652676 0.61594164
3.483464 -22.477032 -0.6126743 0.6443584
4.8640652 -22.911076 -0.55480194 0.92475057
5.3000374 -22.880026 -0.58303928 0.95488179
6.7375455 -22.245935 -0.68471289 1.102012
7.1885924 -22.259546 -0.48504445 1.1285427
9.9387274 -22.81399 -0.81185848 0.70288467
10.967648 -22.957481 -0.40699333 0.7368952
11.363669 -22.276855 -0.50588983 0.77806211
12.605364 -22.34304 -0.42255807 0.80696952
13.235829 -22.518997 -0.41966853 0.63262343
14.540756 -22.483849 -0.45939958 0.92273372
15.46606 -22.216085 -0.4685221 0.87636036
17.914404 -22.418863 -0.43917662 0.74033308
18.619102 -22.236193 -0.48373184 0.73962188
19.469173 -22.480442 -0.35786235 0.73271173
20.742769 -22.281322 -0.7845366 0.73488164
21.674231 -22.521828 -0.58670896 0.82925832
22.630386 -22.604757 -0.36485022 0.86117488
23.652346 -22.55163 -0.46839008 1.0993788
24.395199 -22.588091 -0.43028042 1.2399895
25.535458 -22.617025 -0.33901325 1.0578548
26.10247 -22.653238 -0.41409242 1.3961087
27.657701 -22.588598 -0.64629209 4.4279823
28.371336 -22.754387 -0.75583267 4.4763165
29.478525 -22.661747 -0.72559625 3.8597388
30.747446 -22.391603 -0.48849824 2.8227346
31.468079 -22.306057 -0.80002326 4.5586171
32.56937 -22.269018 -0.37559208 2.281219
33.440392 -22.308929 -0.51025909 4.3503857
34.847557 -22.282736 -0.5142222 3.8201013
35.416569 -22.33172 -0.43035623 3.3755419
36.249527 -22.168545 -0.44992366 2.6258097
37.630676 -22.27417 -0.6495989 4.1234345
38.360802 -22.210176 -0.64505428 4.4202094
39.749611 -22.306356 -0.32588613 4.3558674
40.543659 -22.394587 -0.61900669 4.0499449
41.427975 -22.235291 -0.55874729 4.9357848
42.69294 -22.310188 -0.39582253 3.9043961
43.508755 -22.238039 -0.47309089 4.8293095
44.584965 -22.117458 -0.38051817 4.8731823
45.402012 -22.280031 -0.30240715 3.5482495
46.368309 -22.191616 -0.30253461 4.5807934
47.586994 -22.248909 -0.23110254 4.4825521
48.556618 -22.426477 -0.20751305 4.1024356
49.66243 -22.451664 -0.19806628 5.8349299
50.529602 -22.436741 -0.15992698 3.7713821
51.487087 -22.333654 -0.13209586 4.0552616
52.453445 -22.356441 -0.093999378 4.4972758
53.543129 -22.393415 -0.079849549 5.2291346
54.450306 -22.300383 -0.066043727 8.3602076
55.408234 -22.441879 -0.076891333 4.7262197
56.419296 -22.425701 -0.067125805 8.4542732
57.514248 -22.344336 -0.046199091 7.7539806
58.440319 -22.389681 -0.053790621 3.7424335
59.150715 -22.327637 -0.0093786744 3.2908762
-54.37904 -21.478643 -0.62201971 0.5468325
-53.648323 -21.422998 -0.64226723 0.47591147
-51.901554 -21.74679 -0.58106554 0.44791669
-47.655334 -21.124853 -0.63762504 0.46516031
-41.032524 -21.434042 -0.29066107 0.48394239
-40.973427 -21.405441 -0.50101846 0.47493488
-36.506927 -21.380049 -0.26516178 0.56531596
-34.315414 -21.562128 -0.37494114 0.53444082
-33.760975 -21.545988 -0.30238628 0.55072004
-24.835808 -21.115118 -0.098829597 0.55045182
-20.531168 -21.633127 -0.52717608 0.83118057
-13.822819 -21.377594 -0.28192088 0.44791669
-12.780334 -21.006195 -0.27313784 0.46858975
-7.6014318 -21.4496 -0.25574726 0.49001905
-5.1083364 -21.527983 -0.24184014 0.53900021
-4.894453 -21.388666 -0.42765194 0.72266585
2.7595975 -21.528585 -0.66366404 0.75288665
3.5418108 -21.427977 -0.65589273 0.64018703
4.0305285 -21.253769 -0.4725889 0.8049196
6.529223 -21.390175 -0.55487442 1.0792834
7.4180517 -21.431927 -0.59424597 0.96888059
8.5187321 -21.226728 -0.72158051 0.65039349
9.517786 -21.229397 -0.53603351 0.83929938
10.037808 -21.137859 -0.51990646 0.83857942
11.622035 -21.272583 -0.47218171 0.86288393
12.338183 -21.289471 -0.4511795 0.80416298
13.432006 -21.359833 -0.46007761 0.75606626
14.726884 -21.578547 -0.43477091 0.94865686
15.249801 -21.659475 -0.467327 0.89112163
16.680853 -21.104729 -0.42729539 0.67282724
17.679876 -21.103991 -0.40066326 0.78467691
18.642771 -21.30233 -0.40489781 0.73689461
19.562468 -21.639496 -0.45760956 0.78378755
20.469337 -21.465548 -0.41298684 0.7957449
21.478323 -21.309446 -0.50286555 0.79576254
22.517076 -21.476147 -0.61467063 1.2676749
23.572721 -21.511377 -0.5962103 2.5894606
24.484678 -21.488186 -0.48085183 2.3521349
25.546944 -21.479279 -0.44043252 2.2927582
26.571991 -21.297436 -0.97552848 18.530319
27.533792 -21.323078 -0.95058966 11.064149
28.357731 -21.352682 -0.7911638 8.0857754
29.71381 -21.27718 -0.59090191 4.2680087
30.738064 -21.528948 -0.66242057 3.3030102
31.280514 -21.472782 -0.63753259 4.2823205
32.519886 -21.384619 -0.44122148 3.1847429
33.615276 -21.493515 -0.46639839 4.6820641
34.508816 -21.42729 -0.38389704 4.346961
35.488041 -21.670202 -0.546426 3.8370035
36.463711 -21.399069 -0.52102596 5.5193143
37.456799 -21.430897 -0.44859377 4.2011547
38.528126 -21.481085 -0.44703785 4.8302546
39.629704 -21.533195 -0.34715483 5.6070838
40.677933 -21.505117 -0.59769624 5.156435
41.533321 -21.419312 -0.41139594 5.760942
42.442326 -21.537558 -0.32824582 6.0100389
43.650169 -21.501841 -0.386944 4.1042194
44.477661 -21.45978 -0.2901395 6.4036427
45.276417 -21.622095 -0.31265086 3.3709054
46.53064 -21.55162 -0.25705141 4.9437447
47.478825 -21.513 -0.27943686 3.8220887
48.596897 -21.634502 -0.26635787 4.9195194
49.514183 -21.625067 -0.22941715 4.5437608
50.52203 -21.647991 -0.2168602 3.2708943
51.418659 -21.681986 -0.17955765 3.2493081
52.39986 -21.662764 -0.13454613 3.0769331
53.466625 -21.580206 -0.12745525 3.0864918
54.50544 -21.571337 -0.094124779 3.3147876
55.403454 -21.456154 -0.074345343 3.69575
56.490532 -21.401279 -0.08435674 4.8490548
57.624451 -21.758078 -0.062695362 7.9544554
58.558475 -21.704451 -0.053856235 5.8637047
59.461876 -21.546738 -0.027225878 4.9380617
60.102757 -21.078396 -0.054631621 3.0491996
-54.610779 -20.513937 -0.66212207 0.518152
-37.452667 -20.277613 -0.32478842 0.50747269
-36.517429 -20.797335 -0.27126935 0.53981197
-34.273056 -20.558517 -0.26403251 0.54080671
-25.030327 -20.180586 -0.12475517 0.50353909
-24.661238 -20.515322 -0.13658412 0.55558294
-23.982903 -20.537466 -0.18683496 0.46858975
-20.328911 -20.870106 -0.59182429 0.53435677
-13.52292 -20.497976 -0.47950932 0.54698712
-12.536049 -20.292536 -0.39026251 0.52784848
-11.010525 -20.27305 -0.21076775 0.44791669
-10.629624 -20.304972 -0.25801376 0.49832895
-9.9386749 -20.2987 -0.46295604 0.59003782
-7.5270481 -20.395924 -0.50768381 0.55242252
-6.1992521 -20.342619 -0.17584151 0.53797823
-5.2827535 -20.459686 -0.23184398 0.59730262
-4.9117064 -20.31971 -0.48321548 0.68708777
2.7949357 -20.689659 -0.59562135 0.92353839
3.5676231 -20.751808 -0.63456303 0.76585633
9.5652599 -20.808224 -0.61249638 0.79734445
10.611953 -20.629374 -0.48468405 1.0250387
11.573298 -20.57025 -0.48572889 0.96377861
12.469526 -20.630968 -0.50826395 0.891873
13.493893 -20.704124 -0.47277281 0.85318434
14.477546 -20.717407 -0.47924992 0.87268841
15.667818 -20.85298 -0.4492214 0.89737374
16.408545 -20.927692 -0.41349912 0.8188619
17.371849 -20.961992 -0.45884088 0.81557959
18.224792 -20.87455 -0.76402593 0.59334421
19.957863 -20.913368 -0.39449811 0.87888145
20.301901 -20.93177 -0.5148443 0.98050523
21.812307 -20.930197 -0.95244926 0.69129658
22.155443 -20.611956 -0.95149654 0.65741652
23.668852 -20.384417 -0.8170315 2.5865188
25.394054 -20.903126 -0.83284551 1.3805733
26.90279 -20.422443 -0.92452514 5.5921946
27.506769 -20.570215 -0.9047612 5.4605713
28.666672 -20.750643 -0.2683098 1.9073421
29.466187 -20.814205 -0.34042373 1.1178321
30.43025 -20.602333 -0.96887809 4.8015857
31.623554 -20.864201 -0.20345232 2.4510334
32.222504 -20.888948 -0.18848592 2.1715305
33.364292 -20.592775 -0.83199841 5.8878064
34.414581 -20.776546 -0.84314024 13.876712
35.800999 -20.216518 -0.80092061 4.8161912
36.572227 -20.725737 -0.51729918 2.9703381
37.254662 -20.818256 -0.52504313 3.5606084
38.58913 -20.712814 -0.60027879 3.9752724
39.567284 -20.46874 -0.63270366 4.0012975
40.441742 -20.538609 -0.68653435 4.3506532
41.565372 -20.593102 -0.53600317 5.1672568
42.4981 -20.526081 -0.55186623 4.2755642
43.520985 -20.526808 -0.53227508 3.9952433
44.550865 -20.430225 -0.53338891 4.1653161
45.52705 -20.518486 -0.4891398 3.8767915
46.493706 -20.577435 -0.44380921 3.0828514
47.44775 -20.568525 -0.41128734 2.4483263
48.48201 -20.610886 -0.37013179 2.4105101
49.513382 -20.636992 -0.35235083 2.8614502
50.463734 -20.648134 -0.32138547 2.9813626
51.487446 -20.504354 -0.33018374 3.2102392
52.440208 -20.455311 -0.28278714 3.1822577
53.513378 -20.537741 -0.2280321 3.3478105
54.518635 -20.481392 -0.17050044 3.5024152
55.523388 -20.551098 -0.12719718 4.1405888
56.466919 -20.450897 -0.082856871 4.4080906
57.458637 -20.39642 -0.058709852 5.3784223
58.561035 -20.279104 -0.069336504 5.8893933
59.487659 -20.426752 -0.079810642 3.5078959
60.334564 -20.361233 -0.045319129 3.1769648
61.222809 -20.169083 -0.0080817584 3.2387466
-54.787659 -19.593142 -0.66513425 0.50427729
-37.633682 -19.148273 -0.21712822 0.63017243
-34.311058 -19.808664 -0.34909001 0.56463021
-33.873878 -19.253366 -0.37094989 0.52282238
-20.873299 -19.194693 -0.10561182 0.55927318
-18.92635 -19.311371 -0.89625722 0.5710938
-13.6342 -19.50795 -0.36068615 0.51469332
-12.573318 -19.47757 -0.51254946 0.64159411
-11.182558 -19.429726 -0.31124628 0.54907376
-10.31238 -19.213152 -0.39170381 0.76419252
-9.6890554 -19.414515 -0.43199724 0.64424741
-8.4794912 -19.130054 -0.41326222 0.93445903
-7.6305757 -19.439646 -0.41005716 0.7317642
-6.1838164 -19.450966 -0.45484769 1.1344798
-5.501411 -19.394999 -0.50971246 1.9199322
-4.9353304 -19.606487 -0.48145896 1.1234432
21.963888 -19.678015 -0.99128401 0.62874985
22.082449 -19.702084 -0.98367447 0.62708676
27.95517 -19.282593 -0.99722224 5.6419396
28.401901 -19.534027 -0.97779852 7.1218472
29.195702 -19.778374 -0.96637231 4.2093034
30.267801 -19.888391 -0.99462855 2.742815
31.20133 -19.523661 -0.94822681 5.7695169
32.767513 -19.504642 -0.91284484 5.7935648
33.364246 -19.415491 -0.85178506 4.9036365
34.526566 -19.67643 -0.88304985 5.1519222
35.70702 -19.474365 -0.81557024 3.9656119
36.450302 -19.563377 -0.84468383 2.9949205
37.37101 -19.584759 -0.8007676 3.0698295
38.631157 -19.407759 -0.7765587 2.9206002
39.602287 -19.54327 -0.74969745 3.6881847
40.380516 -19.616211 -0.71304017 5.0425138
41.567341 -19.497164 -0.64484143 3.9215009
42.554543 -19.383266 -0.6332953 3.6051953
43.567451 -19.512754 -0.603751 3.7173581
44.494347 -19.477297 -0.55183786 3.6021161
45.510235 -19.455204 -0.54384625 2.9160211
46.464081 -19.544796 -0.50223273 2.5362692
47.394173 -19.605169 -0.50000918 2.858124
48.457367 -19.483618 -0.47355101 3.2134707
49.572598 -19.501589 -0.42450997 3.1500225
50.467113 -19.530251 -0.39915887 3.3687508
51.491772 -19.467955 -0.35564438 2.9413664
52.517944 -19.492704 -0.3112615 2.9884927
53.52124 -19.47595 -0.25581372 2.6988995
54.490829 -19.477119 -0.21603881 2.9991775
55.439312 -19.475641 -0.15507953 3.0315382
56.534626 -19.573483 -0.10797699 3.4497392
57.493782 -19.474928 -0.064895153 3.9470177
58.506943 -19.54738 -0.052441474 5.5127163
59.413982 -19.444582 -0.038345292 6.3205194
60.265831 -19.230627 -0.038474895 5.8596673
61.189659 -19.157398 -0.013613559 2.6556799
-55.027451 -18.425289 -0.53441066 0.54737628
-54.954155 -18.535881 -0.6997056 0.50655967
-40.509193 -18.568823 -0.44104257 0.54128951
-37.796669 -18.847685 -0.22072107 0.54389882
-36.938534 -18.008537 -0.22445196 0.53435677
-34.158268 -18.489494 -0.16999167 0.58098185
-33.582703 -18.316576 -0.38308933 0.56022191
-31.972107 -18.384613 -0.71079701 0.51047486
-29.749685 -18.022055 -0.59931713 0.70833331
-28.390928 -18.412968 -0.57608247 0.51917619
-21.316805 -18.160477 -0.4848049 0.85080403
-20.76231 -18.656322 -0.39450657 0.86133122
-19.648445 -18.2609 -0.88006961 0.68574351
-17.036068 -18.012953 -0.88968587 0.5710938
-16.981119 -18.087288 -0.88885736 0.54389882
-13.33364 -18.957731 -0.36975649 0.54330528
-12.922678 -18.979057 -0.42369413 0.70101929
-11.181957 -18.942993 -0.59832191 3.5583537
-10.600923 -18.934933 -0.40221521 1.3595124
28.83219 -18.11385 -0.73167169 2.5329683
31.070114 -18.523663 -0.97992033 4.2172728
32.691368 -18.580318 -0.8031258 3.6137516
33.251465 -18.726353 -0.87891829 4.1660547
34.318127 -18.250999 -0.4089939 1.4828163
35.764767 -18.419508 -0.88656878 2.7824194
36.354103 -18.604868 -0.87691659 2.2978067
37.560425 -18.349905 -0.83182997 2.8038006
38.404743 -18.576656 -0.80689347 2.5945897
39.477947 -18.57789 -0.77625817 3.9718797
40.52771 -18.434357 -0.7257846 4.5802417
41.596901 -18.42873 -0.71391779 3.4499037
42.548367 -18.550829 -0.65452415 3.6337793
43.516087 -18.488159 -0.63149619 3.5043504
44.509502 -18.446194 -0.60724103 3.0699408
45.537022 -18.432461 -0.5866316 2.8468628
46.426975 -18.551025 -0.56416428 3.0442572
47.454609 -18.550669 -0.54404652 3.4024951
48.411766 -18.617876 -0.49258232 3.5648775
49.532421 -18.591209 -0.46435615 2.851413
50.547764 -18.590275 -0.42474797 3.1148987
51.486328 -18.549349 -0.38724566 3.0031354
52.510132 -18.487066 -0.34517172 3.1790349
53.454262 -18.452623 -0.29425535 3.1645317
54.491592 -18.480236 -0.23974578 3.0652051
55.44598 -18.402254 -0.1822086 2.906064
56.462467 -18.479448 -0.12195582 2.9379051
57.460373 -18.511532 -0.079794928 3.3775687
58.404289 -18.519733 -0.061232448 3.8965831
59.52755 -18.605682 -0.042611983 4.8867278
60.457893 -18.549166 -0.031532783 6.8542624
61.32481 -18.427473 -0.017561056 5.0396895
-55.239441 -17.350115 -0.47422642 0.56567645
-43.719318 -17.053913 -0.69801831 0.46619898
-37.062195 -17.227524 -0.3792524 0.57320821
-36.648617 -17.347776 -0.50968009 0.54665202
-35.526508 -17.435257 -0.25342643 0.58770216
-34.328308 -17.499247 -0.38479728 0.60152489
-33.733246 -17.874491 -0.34890443 0.60392159
-31.051216 -17.020498 -0.61700994 0.51281011
-30.590876 -17.305704 -0.53782105 0.63133633
-29.750484 -17.434669 -0.61859465 0.61004418
-24.449581 -17.356306 -0.28448513 0.56344718
-21.673538 -17.489271 -0.48215866 0.83959216
-19.728104 -17.348957 -0.85346931 0.75884569
-17.372314 -17.60985 -0.91543043 0.59869158
24.439066 -17.449085 -0.99646324 2.0956714
27.899881 -17.248886 -0.30370861 1.0670501
30.215097 -17.017082 -0.79973185 2.068768
31.188662 -17.965954 -0.78034395 5.3949428
32.560043 -17.448013 -0.87242442 3.800745
33.532848 -17.320715 -0.60577267 2.5401826
34.473152 -17.59771 -0.16449562 0.82449031
35.643791 -17.500126 -0.91529924 2.543448
36.458817 -17.402628 -0.85710907 2.9983382
37.575787 -17.610706 -0.78769785 2.8418977
38.636314 -17.422108 -0.74087352 3.8288977
39.381367 -17.596338 -0.73655844 4.1739864
40.723568 -17.426523 -0.69996101 3.5015655
41.461845 -17.51247 -0.69627249 3.1778378
42.590057 -17.440483 -0.68040681 3.4704938
43.583702 -17.420538 -0.65300256 3.4016507
44.497967 -17.514553 -0.63895321 2.8174911
45.448307 -17.593794 -0.6178863 2.686404
46.510788 -17.430639 -0.60884219 2.8575866
47.547714 -17.445498 -0.5463596 2.9858902
48.492928 -17.414297 -0.50649893 2.842011
49.594193 -17.504335 -0.47417179 2.7712436
50.480846 -17.454636 -0.45333183 2.6741214
51.532497 -17.463346 -0.40889561 2.8192265
52.582199 -17.606159 -0.3720893 2.9241741
53.548347 -17.582138 -0.32271484 3.0262089
54.520584 -17.525291 -0.27343133 3.1320927
55.535172 -17.50704 -0.20923197 3.3110933
56.389778 -17.387951 -0.1588088 3.2341139
57.483078 -17.43145 -0.086000346 2.8662207
58.459381 -17.454641 -0.064125597 3.6832936
59.541504 -17.514372 -0.047312688 4.3531871
60.37178 -17.432444 -0.036649983 4.6792793
61.525547 -17.520197 -0.01631544 5.15062
62.088913 -17.393866 -0.0017514855 6.3418794
-55.38419 -16.583021 -0.42165336 0.58149797
-38.249596 -16.734568 -0.36931002 0.51917619
-37.270103 -16.431587 -0.52583706 0.54140234
-36.762737 -16.752781 -0.57477677 0.55187988
-35.203079 -16.833532 -0.33587942 0.54501039
-34.380295 -16.401003 -0.42646417 0.55944502
-33.851707 -16.036762 -0.21960737 0.59334421
-32.529167 -16.147266 -0.77318227 0.54160011
-31.073177 -16.850231 -0.4426083 0.55875683
-30.700928 -16.435734 -0.71631354 0.62289739
-28.078884 -16.04018 -0.66133308 0.53125006
-27.409309 -16.216658 -0.61576223 0.56909692
-21.796038 -16.485483 -0.47312111 0.8741141
-19.732971 -16.313042 -0.84386683 0.83538657
-18.407825 -16.417454 -0.93459666 0.63470006
22.226908 -16.815048 -0.36799267 0.93239796
24.560953 -16.792818 -0.35311514 0.75516534
26.498962 -16.795237 -0.33082843 0.45235151
27.170706 -16.201605 -0.30897385 0.81859285
28.109041 -16.917236 -0.99288166 1.085923
32.742702 -16.974806 -0.99512982 4.2928214
33.838928 -16.169563 -0.99396765 2.5386207
34.6059 -16.394709 -0.77396727 2.1788509
35.644768 -16.485455 -0.92202288 3.7770753
36.398403 -16.434538 -0.83055788 3.0643494
37.59425 -16.520483 -0.6059494 3.5158379
38.661667 -16.369122 -0.76582217 3.6952755
39.501606 -16.389235 -0.81007886 3.8533304
40.570538 -16.428436 -0.76125109 3.3009338
41.633289 -16.414698 -0.73872972 3.4542305
42.481258 -16.524832 -0.70394719 3.5125809
43.508064 -16.44763 -0.65914369 3.290648
44.466591 -16.473818 -0.62904721 2.7123933
45.434521 -16.529688 -0.60298419 2.9962745
46.470539 -16.456959 -0.57447129 3.2374179
47.488064 -16.415152 -0.54098231 3.3342252
48.483406 -16.400536 -0.47826734 3.1233873
49.467358 -16.385117 -0.41455829 3.1862488
50.468616 -16.427813 -0.40184236 2.6768353
51.471367 -16.401848 -0.38294953 2.870012
52.443855 -16.352379 -0.36513662 2.937427
53.460266 -16.443941 -0.33383757 2.8862994
54.548515 -16.518478 -0.28748348 3.1036077
55.460518 -16.487894 -0.24596733 3.3387721
56.516457 -16.544538 -0.18334489 3.2666512
57.377647 -16.391516 -0.11959465 3.1781547
58.580242 -16.503353 -0.066031642 3.2082748
59.53352 -16.49823 -0.045594595 4.4705739
60.477272 -16.423233 -0.033736438 6.2969313
61.337936 -16.370562 -0.015167209 5.8901467
62.795986 -16.239393 -0.025741955 9.4339418
63.949295 -16.008722 -0.069388643 9.5296602
-55.591049 -15.721886 -0.40710318 0.53321534
-40.12817 -15.45182 -0.68140119 0.56712276
-38.176735 -15.831362 -0.94208527 0.454602
-37.457905 -15.565458 -0.24829349 0.56239593
-36.243465 -15.048576 -0.41597921 0.49391896
-34.11961 -15.082211 -0.56577826 0.53420854
-33.507774 -15.321381 -0.48743504 0.63058114
-32.294582 -15.509372 -0.79130554 0.53048462
-31.562998 -15.514112 -0.77043003 0.53825271
-30.412621 -15.624349 -0.68545508 0.54192626
-27.581726 -15.58544 -0.48060489 0.55568266
-26.990717 -15.804251 -0.60953021 0.55378789
-21.880821 -15.493891 -0.46417281 0.88801783
-20.391886 -15.074688 -0.66497082 0.66496599
-19.507006 -15.380055 -0.8651756 0.72842133
-18.828838 -15.74081 -0.94147241 0.65284002
17.685246 -15.825677 -0.21464095 0.51568645
25.435394 -15.97298 -0.32752886 0.44791669
31.383884 -15.474377 -0.43504947 5.4073839
32.433743 -15.838064 -0.83013803 2.858654
33.700298 -15.583611 -0.96508533 3.001188
34.710464 -15.680576 -0.74056262 1.993175
35.489918 -15.580903 -0.86192352 2.713506
36.4007 -15.835051 -0.70846319 3.5584271
37.665005 -15.616577 -0.68334293 3.5284948
38.560223 -15.546211 -0.77610385 4.2227707
39.537331 -15.469859 -0.78457737 3.9623876
40.573124 -15.487805 -0.76728135 3.7091513
41.533646 -15.509828 -0.7853682 3.8470674
42.62162 -15.571478 -0.68034697 3.1930614
43.558498 -15.475819 -0.67650908 3.1879363
44.420467 -15.546967 -0.68399942 2.6999636
45.518524 -15.567279 -0.65111434 3.2177222
46.466892 -15.615616 -0.62453628 3.2773502
47.490231 -15.522314 -0.56158793 3.2661295
48.409912 -15.566518 -0.48544279 3.1539521
49.479298 -15.556759 -0.45044193 2.8532908
50.478863 -15.469277 -0.44231248 2.7533398
51.506962 -15.520142 -0.43893602 2.7743342
52.538452 -15.537565 -0.39212379 2.929081
53.505173 -15.505495 -0.3454493 2.951092
54.410816 -15.431096 -0.30596277 2.6757169
55.493122 -15.470387 -0.25946242 3.0981016
56.517792 -15.499245 -0.20069619 3.1009798
57.512207 -15.514401 -0.13272293 3.4156122
58.506805 -15.417278 -0.077118956 3.5082555
59.611549 -15.520045 -0.039215323 3.9516792
60.372223 -15.460973 -0.030875372 4.758677
61.522938 -15.70311 -0.011284562 7.0068374
63.320091 -15.622705 -0.016233182 9.7880573
64.236809 -15.517519 -0.062670991 10.583031
-55.937759 -14.066189 -0.50618482 0.74897546
-40.266285 -14.567547 -0.69143748 0.60243952
-35.571945 -14.306526 -0.34145513 0.60628867
-34.173283 -14.42212 -0.47014436 0.60685378
-33.695686 -14.709382 -0.53293788 0.59242547
-32.517418 -14.659237 -0.81779993 0.53829515
-31.72719 -14.616233 -0.78223395 0.53440899
-30.380333 -14.723324 -0.70903248 0.54975879
-29.227705 -14.58126 -0.65381801 0.53877169
-28.799385 -14.194627 -0.6911003 0.5797379
-24.259214 -14.067402 -0.40940225 0.58817345
-21.934288 -14.457729 -0.45703724 0.87124366
-20.412159 -14.470568 -0.66029251 0.82402259
-19.656357 -14.481715 -0.83488959 0.80295897
16.065775 -14.818893 -0.44463646 1.2562759
27.966284 -14.557547 -0.90169281 2.8629508
